ply
format ascii 1.0
element vertex 762
property float x
property float y
property float z
property uchar red
property uchar green
property uchar blue
end_header
178.19943895657266 304.9349765083066 795.5887451171875 12 11 16
178.40066123754318 304.7106325301242 796.4871215820312 12 11 16
178.4260618081012 304.18526041046414 796.6005249023438 12 11 16
178.48229030471316 303.71218431498113 796.8515625 11 10 15
178.5426884321218 303.245831657474 797.1212158203125 14 13 18
178.93623322472305 302.77348209431767 798.8782348632812 13 12 17
179.06204670741698 302.41558400368876 799.43994140625 13 12 17
179.13066105813311 301.96046327152175 799.7462768554688 13 12 17
179.29207361818604 301.66103919199605 800.4669189453125 11 10 15
179.4718462246649 301.3914185354715 801.26953125 13 12 17
180.96561303983736 301.0156784460713 807.9385986328125 14 13 18
181.94985097165826 300.33288944303763 812.3328247070312 13 12 17
182.4191326646316 299.9445323560062 814.427978515625 13 11 17
182.57660799953882 299.62147575682377 815.1310424804688 13 14 16
182.7884525858503 299.3864657924837 816.0768432617188 13 13 15
182.99916248574831 299.1482503940834 817.017578125 13 13 15
185.47074190003863 299.0500474848374 828.0521850585938 15 15 17
192.40181664141795 299.79939600666575 858.9966430664062 18 18 19
193.84759852512724 300.8163753500262 865.4514770507812 17 17 18
193.98689153557692 300.41417406151066 866.0733642578125 20 20 21
194.09156977495397 299.95758956414574 866.5407104492188 16 17 20
365.59987231838386 558.0216244582226 1632.2562255859375 3 2 7
365.5811978407831 556.8277829486303 1632.1728515625 3 2 7
365.72733998247577 555.8845722983434 1632.8253173828125 3 2 8
367.99600192163564 555.8137007945779 1642.9539794921875 2 2 3
370.1853998628971 553.220448948393 1652.728759765625 2 2 4
388.1479779420096 519.4380996597337 1732.9244384765625 4 4 6
415.02440640913767 317.2753022817754 1852.9168701171875 103 104 97
344.5559780933032 246.92926732223586 1538.3037109375 72 67 68
429.40782809608174 -716.1188682764237 1917.133056640625 209 210 213
177.32801313943628 310.93150367611537 789.1825561523438 11 10 15
177.43550737874773 310.5561849367239 789.6609497070312 9 8 13
177.48032635987425 310.0706849610927 789.8604125976562 11 10 15
177.5746546806173 309.67123916301324 790.2802124023438 11 10 15
177.81604356886947 308.96217349023976 791.3544921875 11 10 15
177.7786989894302 308.3323934572213 791.1882934570312 13 12 17
177.7649022039304 307.74361629505154 791.1268920898438 11 10 15
178.1894893632622 307.3462590892094 793.0164794921875 11 10 15
178.21542347994222 306.82471089333825 793.1318969726562 11 10 15
178.20291585730226 306.2369367868309 793.0762329101562 11 10 15
178.6395443463247 305.85201567274396 795.0194091796875 10 9 14
178.70733511245336 305.40023833452835 795.3211059570312 13 12 17
178.73905674750407 304.8865047892247 795.4622802734375 10 9 14
178.95588296892709 304.68772607324263 796.42724609375 12 11 16
179.00906779414396 304.2094758962642 796.6639404296875 12 11 16
179.04617922710858 303.7036235481948 796.8291015625 15 14 19
179.11181681697136 303.245831657474 797.1212158203125 11 10 15
179.5046000542614 302.77008165803176 798.8692626953125 13 12 17
179.638247842229 302.4247040171871 799.4640502929688 13 12 17
179.70463972950975 301.9654640503889 799.759521484375 13 12 17
179.84366360089274 301.6276180327799 800.3782348632812 13 12 17
180.0377648982868 301.38108747679223 801.2420654296875 13 12 17
180.22192318426204 301.1167105163113 802.0616455078125 13 12 17
181.47708780227958 300.90727677618327 807.6476440429688 11 10 15
182.46798774853238 300.2311181026613 812.0575561523438 13 12 17
182.8864445270308 299.75739841333177 813.9198608398438 15 14 20
183.33416804534681 299.32614337180866 815.9124145507812 12 13 14
183.5452753208917 299.0875984158122 816.8519287109375 16 13 17
186.29213851270686 298.82806950685864 829.0765991210938 14 14 16
192.9698924105899 299.7291421777229 858.7953491210938 17 17 19
194.38624352958055 300.69375384291396 865.0986938476562 17 17 19
194.49479378527715 300.24366108982736 865.581787109375 16 16 18
194.6279615657969 299.8308026091671 866.1744384765625 17 17 18
366.8140389228504 558.0958245612546 1632.4732666015625 3 2 7
366.9001934024822 557.0610792788373 1632.856689453125 3 2 7
366.8948447480638 555.8871488962008 1632.8328857421875 1 0 5
369.0971463475928 555.705462503549 1642.634033203125 2 2 4
373.51716464297454 550.4916356691512 1662.304931640625 1 1 3
390.23585147903964 515.6128941216879 1736.7099609375 4 4 6
345.74961151532676 246.99735920541247 1538.7279052734375 72 66 68
346.23085326799816 245.14085039342802 1540.86962890625 74 64 68
429.9351280252712 -703.7910142762652 1913.3880615234375 197 198 198
180.76842483254683 301.6457232843378 801.9456176757812 13 12 17
180.98379376008478 301.43185130109384 802.9010620117188 13 12 17
181.17563637702546 301.177505995399 803.7521362304688 14 13 18
182.48676729726566 301.045003215262 809.5687255859375 13 12 17
183.219164734889 300.5122191197495 812.81787109375 12 11 16
183.32204763000394 300.1003041259906 813.2742919921875 15 14 19
184.11115585843547 299.64260097069524 816.7750244140625 13 13 19
184.29706874445952 299.3614262307557 817.5997924804688 13 11 16
370.5712556121316 554.9838981187193 1643.970703125 2 2 4
416.8140489152546 311.34393818882666 1849.1182861328125 120 120 114
349.70124433627217 230.19887113809492 1551.384765625 89 78 79
178.8524214670894 311.62406749363106 790.9403686523438 13 12 17
178.8975114714805 311.13777244749815 791.1397705078125 10 9 14
178.97779569417497 310.7122911711719 791.4948120117188 14 13 18
179.0593634707135 310.2885271557464 791.8555297851562 11 10 15
179.33332630731064 309.63080446144426 793.0670776367188 11 10 15
179.34443663897113 309.08371828856275 793.1162109375 11 10 15
179.29559258462768 308.43342536186543 792.9002075195312 11 10 15
179.83625858769355 308.227863023609 795.2911987304688 11 10 15
179.84067511704927 307.66759693821757 795.3107299804688 11 10 15
179.86175024306863 307.1357495369068 795.4039306640625 10 9 14
180.5907260165391 307.24015612222973 798.627685546875 10 9 14
180.70320949856765 306.8609658556803 799.1251220703125 12 11 16
180.74411760172504 306.3597456101229 799.3060302734375 12 11 16
180.82647207255502 305.92838741216974 799.6702270507812 12 11 16
180.84867893422177 305.39493929350806 799.7684326171875 12 11 16
180.86778042368528 304.8561167768048 799.8529052734375 12 11 16
180.83962504904252 304.2376704953423 799.7283935546875 11 10 15
181.07276259240774 303.4864402355917 800.7593994140625 13 12 17
181.17206549464032 303.08083703894795 801.1985473632812 13 12 17
181.205700126015 302.5649583427869 801.3472900390625 13 12 17
181.2439169065962 302.0565037414822 801.5162963867188 13 12 17
181.4027463435514 301.74843696551756 802.2186889648438 13 12 17
181.5580839619847 301.43356987586725 802.9056396484375 13 12 17
183.1244060979917 301.143051840349 809.8323974609375 13 12 17
183.67614102775534 300.8904728064891 812.2723388671875 13 12 17
183.80460682538993 300.5205684314877 812.8404541015625 15 14 19
183.93989064021738 300.1609787429621 813.438720703125 12 11 16
184.5327959045689 299.96320527787725 816.0607299804688 14 15 15
184.6992024497 299.6505275248596 816.796630859375 15 15 16
184.83680494243922 299.29015903889615 817.4051513671875 12 13 14
187.64212918257724 299.68529816087823 829.8111572265625 13 13 19
187.85069978140123 299.42528165811547 830.7335205078125 12 12 16
190.97832025127312 300.1895481835736 844.5648193359375 12 12 14
194.2472006522569 301.03447846278254 859.0208129882812 16 16 18
196.3341487893782 301.16916078651667 868.2499389648438 14 15 16
196.45832227254516 300.7393332937182 868.799072265625 19 17 23
369.807789567367 559.0976511492111 1635.4036865234375 3 1 6
369.836193371786 557.9728589742232 1635.529296875 1 2 4
369.8441155213178 556.8170513745192 1635.5643310546875 2 2 5
371.6543128876861 557.1954347141195 1643.569580078125 2 2 3
371.75180777321367 556.1678188203591 1644.000732421875 2 2 4
371.8525874524496 555.1444911779753 1644.4464111328125 2 2 4
381.93778744285896 538.8462781675984 1689.0462646484375 4 4 6
390.2967869345842 522.2955700281807 1726.0123291015625 7 7 9
390.8061507858414 520.509309090224 1728.264892578125 5 5 7
391.1742133010239 518.5293100180838 1729.892578125 7 7 9
391.366691171008 517.5487371976081 1730.7437744140625 8 8 10
391.5616533387547 516.570226329132 1731.60595703125 11 11 13
391.7036171542327 515.5207332211803 1732.2337646484375 14 14 16
417.47624660624314 322.7173606200371 1846.208251953125 108 109 102
417.99455392944566 313.87947993296893 1848.5003662109375 99 100 90
418.0082451704484 312.5699259185901 1848.5609130859375 109 110 98
418.2541630456367 304.83014464225164 1849.6484375 87 87 84
418.15746865605485 302.1190599209749 1849.2208251953125 86 81 81
431.31925059896906 -690.7032116589402 1907.42626953125 211 211 209
432.2179867195501 -713.9776459786102 1911.4007568359375 195 194 193
179.39469373115517 311.585086731541 790.8414306640625 11 10 15
179.497356127181 311.198429991752 791.2940063476562 11 10 15
179.5491788309335 310.7231451413401 791.5224609375 11 10 15
179.60724573436335 310.2583204631923 791.7784423828125 11 10 15
179.93427011657914 309.6905449313402 793.2200927734375 11 10 15
179.9192341945179 309.0983703953189 793.15380859375 11 10 15
179.93720530578446 308.5628921768078 793.2330322265625 14 13 18
180.44222399188538 308.29303297287703 795.4593505859375 13 12 17
180.47128513406452 307.7746518244152 795.5874633789062 13 12 17
180.4452284072512 307.1622635349621 795.4725952148438 10 9 14
181.17674124528557 307.26697124441444 798.6973876953125 13 12 17
181.22209822564707 306.77349798389633 798.8973388671875 12 11 16
181.31059694923403 306.352633929331 799.2874755859375 12 11 16
181.3999402319791 305.9326371319989 799.6813354492188 12 11 16
181.4357024664949 305.42188164344543 799.8389892578125 12 11 16
181.421815698698 304.8274800813864 799.7777709960938 11 10 15
181.44374654634532 304.2932344605783 799.8744506835938 14 13 18
181.66910538924654 304.0993727777033 800.867919921875 13 12 17
181.7226725922437 303.6170678798529 801.1040649414062 13 12 17
181.7297613510792 303.0569172060764 801.1353149414062 13 12 17
181.76099619469812 302.5369125000158 801.2730102539062 13 12 17
181.8385156492293 302.0936051384647 801.61474609375 13 12 17
181.9855104784412 301.7650125752207 802.2627563476562 13 12 17
182.12036303910088 301.4153988119298 802.8572387695312 13 12 17
183.72163335769395 301.17423675027254 809.916259765625 13 12 17
184.27231361926258 300.91697088881904 812.3438720703125 13 12 17
184.41217815394268 300.5649326122371 812.96044921875 14 13 18
184.52939188890622 300.1751676845701 813.4771728515625 14 13 18
185.08202432820102 299.9090472511032 815.9133911132812 14 14 17
185.2713440319444 299.6326815822917 816.7479858398438 14 14 16
185.42335083517673 299.29489677632927 817.4180908203125 14 14 16
188.18490698472715 299.6061866484625 829.5921020507812 12 13 16
191.54096355544453 300.1263097359694 844.3869018554688 12 12 14
191.76492402990357 299.8736542665361 845.3742065429688 17 17 19
196.9826658897939 301.21290051826463 868.3760375976562 18 18 20
197.1249948757879 300.8100897530122 869.0034790039062 17 17 18
370.94921176882616 557.8905680873097 1635.2880859375 1 1 3
371.04388546593 556.8650924571494 1635.7054443359375 2 2 3
372.76700767224025 557.1045974520093 1643.3016357421875 2 2 4
372.9665174668097 556.2288551401381 1644.18115234375 2 2 4
373.0078316393978 555.1164275717773 1644.36328125 2 2 4
380.487524448489 544.6913115073661 1677.336669921875 1 1 3
383.4446721919244 538.062622591068 1690.3729248046875 1 1 3
384.4049774904209 535.7804120303597 1694.6063232421875 0 0 2
392.3612785693425 518.4658261018193 1729.6807861328125 7 7 9
392.5190588343608 517.4388631744147 1730.3763427734375 13 13 15
392.61517243560303 516.3298089401767 1730.800048828125 25 25 27
392.7401948814713 515.258076819355 1731.3511962890625 32 32 34
392.92342268309045 514.261737379537 1732.158935546875 14 14 16
413.17182541601693 501.74928446672624 1821.4217529296875 58 60 54
418.95796943456463 310.9753728352087 1846.9293212890625 112 114 110
419.0400439704569 309.7173649930757 1847.2911376953125 113 115 110
433.676060347698 -750.9862737594358 1911.8123779296875 195 196 205
433.8115774794985 -752.5863672888621 1912.4097900390625 197 200 212
179.9583523712311 311.58337936935203 790.8370971679688 11 10 15
180.0889488513276 311.2444452320902 791.4110107421875 11 10 15
180.14019856009674 310.7678069523636 791.63623046875 11 10 15
180.20521207954073 310.3145484395935 791.9219360351562 11 10 15
180.54916845831244 309.7738527425712 793.4334716796875 11 10 15
180.55887673647766 309.2239836676878 793.4761352539062 11 10 15
180.539543513007 308.62440850131094 793.3911743164062 10 9 14
181.000888113599 308.2772313300055 795.4185791015625 13 12 17
181.0377351264349 307.77196010473574 795.5805053710938 10 9 14
181.00672141378408 307.15130441576594 795.4442138671875 13 12 17
181.76774486698085 307.3020516231744 798.78857421875 12 11 16
181.80217522688292 306.78983375737795 798.9398803710938 10 9 14
181.82174456012294 306.25236858763935 799.02587890625 12 11 16
181.94296609349342 305.88568006289717 799.55859375 12 11 16
181.9737159187549 305.36641209945674 799.6937255859375 12 11 16
181.9812019873258 304.80798572658495 799.7266235351562 14 13 18
182.04507662435267 304.3437830407365 800.00732421875 13 12 17
182.21096457056908 304.04940575830227 800.736328125 13 12 17
182.25639486796308 303.55336174698675 800.9359741210938 13 12 17
182.31068622611446 303.07176320273317 801.174560546875 13 12 17
182.32824168190962 302.5288697727133 801.251708984375 13 12 17
182.41524118752747 302.10087360805335 801.634033203125 13 12 17
182.54075436317697 301.7359937792861 802.1856079101562 13 12 17
182.68185078360668 301.39603620281605 802.8056640625 13 12 17
184.0854261410027 301.4013491658744 808.9737548828125 12 11 16
184.8830049420261 300.9669374092535 812.478759765625 13 12 17
185.00114315958444 300.578787956581 812.9979248046875 15 14 19
185.12164247483673 300.19372591930824 813.5274658203125 14 13 18
185.62134796855077 299.8392296126106 815.7234497070312 14 14 15
185.82334682067497 299.5824800725837 816.6111450195312 14 14 16
185.99977637365444 299.28332060656345 817.386474609375 14 14 16
188.75180240169723 299.5658483738119 829.4804077148438 15 15 16
190.4682926475942 299.8995990363697 837.0236206054688 14 14 16
192.0907973164612 300.0434597766555 844.15380859375 15 15 17
195.5072779020173 301.08596203869524 859.167724609375 16 16 18
197.44289190272477 301.5888484152457 867.6738891601562 15 15 17
197.5820994449993 301.18154594773284 868.28564453125 18 18 20
197.73161248426752 300.7890466256736 868.9426879882812 17 17 19
198.947411130943 301.3900734338866 874.2855834960938 18 18 20
372.14374637236074 557.9310055626098 1635.4066162109375 3 3 5
372.16269070915234 556.7917009762454 1635.4898681640625 4 4 6
373.9935414162973 557.1839300403763 1643.53564453125 4 4 6
374.0695965396631 556.1235489050662 1643.869873046875 1 1 3
374.2040124424999 555.1492714691925 1644.4605712890625 2 2 4
375.84786421228233 552.8709258009125 1651.6845703125 2 2 4
391.7424683342759 524.6279297071101 1721.5343017578125 2 2 4
392.61557448388646 522.1015675746423 1725.3712158203125 5 5 7
393.3780145956996 518.1783738561857 1728.7218017578125 5 5 7
393.56154133057095 517.185276849124 1729.5283203125 15 15 17
393.6748462422616 516.0989689176703 1730.0262451171875 31 31 33
393.75726244059115 514.9715524706419 1730.388427734375 26 26 28
414.39892292036325 500.3602479125506 1821.099365234375 58 59 54
419.41650551863097 318.2347615705156 1843.1494140625 105 106 102
420.19658441909905 309.59771874719365 1846.5775146484375 113 114 107
420.1686679110703 308.2588187608144 1846.454833984375 121 122 118
354.069043527854 247.54421186522052 1555.976318359375 76 72 70
354.03596038251845 246.41025034114503 1555.8309326171875 72 69 67
354.13518204090514 245.36816589930703 1556.2669677734375 74 68 71
432.8467903109971 -650.77259519872 1902.1695556640625 166 166 163
432.7119855214813 -651.9276076331405 1901.5771484375 162 162 160
434.5731693895888 -747.4515343142733 1909.7562255859375 203 206 211
434.97158379223146 -752.2311258475372 1911.507080078125 202 207 214
180.70690154212213 311.90080445238004 791.6427612304688 12 11 16
180.80238019591076 311.50008545619124 792.06103515625 12 11 16
180.88073594505815 311.06932209717047 792.404296875 12 11 16
180.95718295707306 310.63479199723383 792.7391967773438 12 11 16
181.23046674432882 309.97020753792117 793.9364013671875 10 9 14
181.30740138991771 309.53469871729084 794.2734375 11 10 15
181.2954613335487 308.9472564289813 794.2211303710938 10 9 14
181.65192147614053 308.4183579787653 795.78271484375 10 9 14
181.65934743885313 307.8627702265523 795.8152465820312 13 12 17
181.70742810924924 307.3759074392923 796.02587890625 12 11 16
182.30989242372863 307.25457335955144 798.6651611328125 12 11 16
182.377854611556 306.79866960616215 798.962890625 12 11 16
182.4712852043338 306.38510436663097 799.3721923828125 12 11 16
182.61712944012243 306.05879777066457 800.0111083984375 12 11 16
182.69296342707287 305.61446350982294 800.3433227539062 12 11 16
182.7233499649268 305.09377110693845 800.4764404296875 11 10 15
182.72761327560232 304.52935228861185 800.4951171875 14 13 18
182.85909321953974 304.1765250075669 801.0711059570312 13 12 17
182.8835724249544 303.64521979114494 801.1783447265625 13 12 17
182.89216870824458 303.0874403904936 801.2160034179688 13 12 17
182.8805908939591 302.4962379622252 801.165283203125 15 14 19
183.03971269534824 302.1869221673291 801.8623657226562 12 11 16
183.08411521535763 301.68757555094277 802.056884765625 13 12 17
183.22497165630364 301.34658707800247 802.6739501953125 13 12 17
183.44435103505097 301.13361702145096 803.635009765625 12 11 16
194.56787195059977 301.1363247854104 852.3650512695312 14 14 16
194.74550989541297 300.8021313652182 853.1432495117188 15 15 17
196.1766587055429 301.17186068467174 859.412841796875 16 16 18
196.35772401776194 300.83566381358327 860.2060546875 16 16 18
198.2153710840975 301.2018068012095 868.3440551757812 15 15 17
198.33410289317186 300.76187648334695 868.8641967773438 17 17 19
375.21792935038167 557.2595794777965 1643.7587890625 3 3 5
375.2337008134035 556.1093428874722 1643.827880859375 3 3 5
375.33922471881647 555.0917431369571 1644.2901611328125 4 4 6
376.9159530493663 552.7078912722185 1651.197509765625 2 2 4
394.0451551298746 521.1311497604544 1726.2373046875 5 5 7
394.25676023621367 520.1778406744836 1727.164306640625 6 6 8
394.40870685787115 519.1446817483321 1727.8299560546875 7 7 9
394.62298698267324 518.1924244751169 1728.7686767578125 8 8 10
394.6919523024243 517.0484636135993 1729.07080078125 18 18 20
394.78953474677496 515.9414704009737 1729.498291015625 20 20 22
394.84267287395284 514.7759224950086 1729.7310791015625 14 14 16
394.92582136451324 513.6490743055049 1730.0953369140625 15 15 17
395.477321004316 509.41845477609564 1732.5113525390625 16 16 18
181.23471873728832 311.83645373100256 791.4794311523438 12 11 16
181.3249475717987 311.42632184974406 791.8734741210938 12 11 16
181.41042457797366 311.0074808234303 792.2467651367188 12 11 16
181.46804748452357 310.5404409266669 792.4984130859375 12 11 16
181.6672189716065 310.31482786957275 793.3682250976562 12 11 16
181.77800645165047 309.9372752166622 793.85205078125 13 12 17
181.82879511097678 309.4569188648678 794.0738525390625 10 9 14
181.88320354541744 308.98239504737757 794.3114624023438 13 12 17
182.16768432708702 308.3296511512679 795.5538330078125 10 9 14
182.23841668945644 307.8811400327856 795.8627319335938 12 11 16
182.23739644396088 307.31118971603905 795.8582763671875 12 11 16
182.85180784773183 307.20700117255836 798.54150390625 12 11 16
182.93300820840489 306.7730292386027 798.8961181640625 12 11 16
183.02044184977677 306.34898451418775 799.2779541015625 12 11 16
183.15709884231742 306.00663362726664 799.874755859375 12 11 16
183.20927112224732 305.5225425512131 800.1026000976562 12 11 16
183.26334413351134 305.04128988446575 800.3387451171875 14 13 18
183.34377581607131 304.60349175413563 800.6900024414062 11 10 15
183.41779253037848 304.15455435154087 801.0132446289062 13 12 18
183.43210391924754 303.60633452994375 801.0757446289062 13 12 17
183.44816230382813 303.06091154110226 801.1458740234375 13 11 17
183.426765100353 302.4536276390668 801.0524291992188 15 13 19
183.5842742337068 302.140919195249 801.7402954101562 14 13 19
183.65054826302034 301.67735928180446 802.0297241210938 15 14 19
183.79195708389642 301.3365735156561 802.6472778320312 13 12 17
185.17104947456338 300.7107981216494 808.6699829101562 15 14 19
185.69858627559015 300.40946026248764 810.9738159179688 13 12 17
185.84214739518285 300.0622363484759 811.6007690429688 13 12 17
185.96137635850505 299.67490614330404 812.1214599609375 13 12 17
186.51743810551005 299.40784993621776 814.5498657226562 13 11 16
186.65510136758056 299.0468330987944 815.1510620117188 13 12 16
186.80168129576285 298.6992156853868 815.7911987304688 13 11 16
191.31531724789542 299.35474631617143 835.5029296875 15 15 17
195.36998248668834 300.82576014807313 853.2102661132812 16 16 18
196.79200904396248 301.174534322806 859.4204711914062 17 17 19
196.95636640050557 300.8119489328531 860.1382446289062 16 16 18
197.17149844040924 300.52572857351385 861.0777587890625 16 16 18
198.8655811458524 301.24760014088554 868.47607421875 15 15 18
198.92742479404143 300.72101563166746 868.7461547851562 17 17 20
199.8714593486685 300.90170280241927 872.868896484375 17 17 20
375.4013705778578 559.3051717546555 1639.4345703125 3 3 5
375.28047847461823 557.9549102347426 1638.9066162109375 3 3 5
376.51978325642943 557.4494479782801 1644.31884765625 3 3 5
376.3972978931009 556.0944761248737 1643.783935546875 3 3 5
376.4853464769633 555.0506573581329 1644.16845703125 1 1 3
377.5876308911258 554.3210704737556 1648.9822998046875 2 2 4
378.11628576940797 552.7391906328651 1651.291015625 2 2 4
395.320867248387 521.1881223659797 1726.426025390625 3 3 5
395.50733458265546 520.2007449361303 1727.2403564453125 5 5 7
395.65972851256583 519.1674950346511 1727.9058837890625 5 5 7
395.8471462125014 518.1791422494085 1728.724365234375 8 8 10
395.94648737664323 517.0745997599803 1729.158203125 11 11 13
396.03738705750686 515.9584401833507 1729.55517578125 11 11 13
396.0328029407597 514.7176149535245 1729.53515625 13 13 15
396.21261771535865 513.7159036878483 1730.3204345703125 15 15 17
396.2095989067691 512.476585310833 1730.3072509765625 14 14 16
396.3441036005931 511.4147364774228 1730.8946533203125 14 14 16
396.5152253245313 510.3991827403038 1731.6419677734375 16 16 18
396.6362571874278 509.31824177795534 1732.1705322265625 11 11 13
397.02819916930656 507.3456186602053 1733.8822021484375 19 19 21
397.1825776863452 506.30445437150127 1734.556396484375 7 7 9
397.2266019782764 505.12199852450584 1734.7486572265625 17 17 19
414.69885115219694 495.0137200525076 1811.0526123046875 49 47 42
414.7542798321332 493.7866559516835 1811.294677734375 55 56 48
414.6354002679533 492.35226661587353 1810.7755126953125 65 65 59
415.346022219551 490.6059379267145 1813.87890625 58 59 52
415.3810739415076 489.3521589022884 1814.031982421875 57 59 51
415.5191844344803 488.21925143087054 1814.6351318359375 64 66 58
415.3218717508345 485.39742161283567 1813.7734375 64 65 58
415.3908571174923 484.18283403966666 1814.07470703125 68 69 61
415.22412384678154 482.69379576155075 1813.3465576171875 68 68 61
423.8677275408579 299.7818834609038 1851.094482421875 84 83 81
358.007470667609 247.62055479858876 1563.4727783203125 76 72 70
358.1217381631104 246.58294525429747 1563.9718017578125 76 69 72
436.0584313276749 -737.1710800329957 1904.3331298828125 193 194 198
435.97370902364736 -738.3872452708256 1903.963134765625 197 198 202
181.7459699354835 311.74408784131236 791.2449951171875 12 11 16
181.84409272083465 311.3471573934919 791.6721801757812 12 11 16
181.952828300658 310.96775481341047 792.1455688476562 12 11 16
181.9903866578456 310.4662515677573 792.30908203125 12 11 16
182.30298042052237 309.8661919212097 793.6699829101562 13 12 17
182.3723491220394 309.4172202184782 793.9719848632812 10 9 14
182.42715151780132 308.9431490093985 794.2105712890625 12 11 16
182.73102512438604 308.3217739849862 795.5335083007812 12 11 16
182.78923426923217 307.8518144552255 795.7869262695312 12 11 16
182.81884354522327 307.33341433840894 795.9158325195312 12 11 16
183.40568761895014 307.1797633952079 798.470703125 12 11 16
183.48544480224243 306.74300610254824 798.8179321289062 12 11 16
183.5927363690795 306.35169818185835 799.2850341796875 11 10 15
183.7190664760661 305.99143270633914 799.8350219726562 14 13 18
183.75665287234077 305.4828515287708 799.9986572265625 11 10 15
183.81054399777153 305.0010915012951 800.2332763671875 13 12 17
183.84564893483673 304.4878824842193 800.3861083984375 13 12 18
183.98159644870304 304.14115874058825 800.9779663085938 13 12 15
183.99055493703557 303.58405820243826 801.0169677734375 13 14 15
183.98259183629554 302.9990339811642 800.9822998046875 13 13 15
184.0001863634588 302.4560704158406 801.0588989257812 12 13 14
184.14938234598588 302.12891241953616 801.7084350585938 17 16 17
184.2175033081264 301.66806132899313 802.0050048828125 14 13 16
184.35957736252684 301.32765984116463 802.62353515625 13 12 17
185.7596951579598 300.7290460602073 808.7190551757812 15 14 19
186.2984241582012 300.44303505110537 811.064453125 13 12 17
186.42098300797113 300.06122089164285 811.5980224609375 13 12 17
186.5598325673536 299.70481553132856 812.2025146484375 13 12 17
187.0750087344202 299.3694412610573 814.4453735351562 13 12 16
187.24264041672396 299.0556777001926 815.1751708984375 13 11 16
187.37219501872855 298.68017534438195 815.7391967773438 13 12 17
192.12996545682952 299.0977657066998 836.4525146484375 13 13 15
195.90265266694087 300.70832638847446 852.877197265625 13 13 15
197.34073538632455 301.0755455445243 859.1380004882812 15 15 17
197.55638400530893 300.79047533247996 860.0768432617188 15 15 17
197.7471198953936 300.46621092704135 860.9072265625 14 14 17
199.22243852246305 301.469366697589 867.3301391601562 15 15 18
199.3913179441433 301.1051390300764 868.0653686523438 18 18 18
199.5374997248058 300.70565583892136 868.7017822265625 17 17 18
200.44652692900203 300.8294497866742 872.6593017578125 17 17 18
376.44641870337693 559.1188095487154 1638.8883056640625 3 3 5
376.4528396543257 557.9581933191092 1638.916259765625 3 3 5
377.5688233605014 557.2650007449201 1643.7747802734375 3 3 5
377.4716118454814 555.9482036995306 1643.3515625 3 3 5
377.56744944523285 554.9157377594662 1643.768798828125 4 4 6
379.2530191670175 552.6776134311754 1651.1070556640625 2 2 4
383.95660406927306 547.5972766432272 1671.58447265625 2 2 4
385.2013713025577 544.5831719398091 1677.003662109375 2 2 4
396.4171743821914 522.2411592105756 1725.83251953125 4 4 6
396.5843153804707 521.2286222970744 1726.5601806640625 4 4 6
396.7376331088033 520.1969214317784 1727.2276611328125 5 5 7
396.9175038526318 519.1990008432492 1728.0107421875 6 6 8
397.0772986100875 518.1737634968489 1728.7064208984375 7 7 9
397.1879408478345 517.0835429944262 1729.1881103515625 8 8 10
397.1795851998749 515.838085825505 1729.1517333984375 9 9 11
397.2784510210346 514.7316014977434 1729.5821533203125 8 8 10
397.40527181204567 513.6606353537519 1730.13427734375 10 10 12
397.5398313910999 512.5988594064981 1730.7200927734375 9 9 11
397.5661040157246 511.39695533840694 1730.83447265625 10 10 12
397.70161692374063 510.3350662673762 1731.4244384765625 9 9 11
397.80303430182755 509.22868897338515 1731.865966796875 10 10 12
397.9486973593784 508.178182671381 1732.5001220703125 13 13 15
398.378957151124 506.2510072108118 1734.373291015625 8 8 10
398.3846210467208 505.0198797944715 1734.39794921875 13 13 15
398.3676854381047 503.76013872124014 1734.32421875 5 5 7
398.34976846143957 502.4992649830633 1734.2462158203125 10 10 12
398.33785184941667 501.24605315286203 1734.1943359375 13 13 16
416.614205494006 487.98429649229934 1813.7618408203125 60 59 51
416.52487296246466 485.29023742675787 1813.3729248046875 62 65 54
416.54951932003684 484.024164618449 1813.480224609375 66 66 58
416.44030707573256 482.60281302563624 1813.0047607421875 63 66 57
416.29621420705996 479.847825724313 1812.37744140625 65 68 57
416.3434320297579 478.60810428691843 1812.5830078125 65 67 59
416.315364903558 477.28177941657475 1812.4608154296875 65 65 57
425.17580054845706 299.7723152174808 1851.035400390625 82 80 79
359.053772967321 247.5722988335113 1563.1680908203125 76 74 72
436.8043109513037 -723.9169708713879 1901.6610107421875 199 198 201
182.2525268008875 311.6442672716419 790.9916381835938 11 10 15
182.3554829128058 311.25524693170007 791.4384765625 11 10 15
182.43633179785132 310.82792309177245 791.7893676757812 10 9 14
182.5677516675244 310.48610236333917 792.3597412109375 13 12 17
182.85499092253485 309.8413616182055 793.6063842773438 10 9 14
182.9214672974888 309.3871786424506 793.8948974609375 10 9 14
183.01373543712765 308.9761270776096 794.2953491210938 12 11 16
183.32149278629038 308.359574921077 795.6310424804688 12 11 16
183.31620505263632 307.7826325371489 795.6080932617188 12 11 16
183.36061639008176 307.2890122296657 795.8008422851562 12 11 16
183.95971942570966 307.15294827302324 798.4010009765625 12 11 16
184.0730681843576 306.77181050083936 798.8929443359375 15 14 19
184.13705538682015 306.30785841276594 799.170654296875 14 13 18
184.28080861397885 305.97595158410417 799.7945556640625 13 12 17
184.3365688904105 305.49732488457624 800.0365600585938 11 10 15
184.3402393651012 304.9321866338464 800.052490234375 13 12 18
184.39576056846872 304.45263547242314 800.29345703125 13 12 15
184.5484720039722 304.1329081566798 800.9562377929688 13 12 18
184.58600647504306 303.622781538102 801.119140625 13 11 17
184.57941087109694 303.03997014301876 801.0905151367188 12 13 17
184.5524237410913 302.42378428131116 800.973388671875 15 13 19
184.73812725944688 302.1556401463146 801.7793579101562 14 13 18
184.80370359462992 301.6902386682912 802.06396484375 14 13 19
184.9713360019604 301.3907200781836 802.79150390625 15 14 19
185.19519276872936 301.1815998600872 803.7630615234375 13 12 17
186.8776202367303 300.44321592538745 811.06494140625 13 12 17
186.99094086913541 300.0459664734401 811.5567626953125 13 12 17
187.194209226145 299.7920662611532 812.43896484375 13 12 17
187.63427242163027 299.3339715674658 814.348876953125 12 13 14
187.81830242853684 299.04555678922554 815.1475830078125 15 16 17
187.92220076959032 298.6286636237058 815.5985107421875 12 13 14
192.73530407570166 299.1103804894861 836.48779296875 13 13 15
197.92019412280254 301.02391224487604 858.9906616210938 15 15 17
198.13415045209157 300.73536118122405 859.9192504882812 14 14 15
199.72512544149606 301.2935172732892 866.82421875 18 18 16
199.92625620404976 300.97741308543203 867.6971435546875 17 17 16
200.09854350457036 300.6167296110418 868.4448852539062 17 17 16
200.94667629430964 300.6455559725764 872.1258544921875 17 17 18
377.7848872852448 558.1974013395418 1639.618896484375 3 3 5
378.74160143547056 557.263759233365 1643.7711181640625 3 3 5
378.73510427337436 556.0806004797819 1643.742919921875 3 3 5
378.6362686560322 554.7621915088149 1643.31396484375 4 4 6
379.9381199321559 554.3149562445128 1648.964111328125 4 4 6
385.3495809284599 546.6868246150124 1672.4503173828125 2 2 4
388.9039786149651 538.4731618534511 1687.876708984375 1 1 3
397.6366988708679 522.224499822429 1725.7774658203125 2 2 4
397.8287448569841 521.2439525712649 1726.6109619140625 4 4 6
397.9691229350019 520.194678799418 1727.22021484375 3 3 5
398.16707543211464 519.2196134910165 1728.079345703125 5 5 7
398.3396299319422 518.2102804700086 1728.8282470703125 6 6 8
398.3806942464896 517.0292265337911 1729.0064697265625 5 5 7
398.42111165745166 515.8470805384817 1729.181884765625 7 7 9
398.4995557487343 514.7138004414647 1729.5223388671875 6 6 8
398.65323753961576 513.6769802840322 1730.1893310546875 8 8 10
398.69635506989056 512.4970848413599 1730.37646484375 8 8 10
398.7904373521926 511.38227598023354 1730.7847900390625 6 6 8
398.9379032434063 510.3351742075663 1731.4248046875 8 8 10
399.0110596010349 509.1923294579424 1731.7423095703125 8 8 10
399.1494969682967 508.13213647441773 1732.3431396484375 7 7 9
399.590797718467 506.21747802533923 1734.2584228515625 8 8 10
399.4734550333357 504.83096192112214 1733.7491455078125 7 7 9
399.39582660309543 503.4952385104523 1733.4122314453125 8 8 10
399.43379703093035 502.3053667895645 1733.5770263671875 8 8 10
399.45812623098755 501.0981475817006 1733.6826171875 9 9 11
417.61721614373 482.46702129228385 1812.49462890625 62 66 54
417.3689739244181 479.5936003579731 1811.417236328125 65 67 56
417.43774258816364 478.37909331887556 1811.7156982421875 68 70 58
417.49998596357005 477.1567023992369 1811.98583984375 65 67 55
426.04209467174155 298.132102193891 1849.059326171875 84 85 79
359.89277166954605 244.0362110565548 1561.965576171875 77 73 74
182.95947432037968 311.88666460777245 791.6068725585938 11 10 15
182.98804038643036 311.3700810004418 791.73046875 11 10 15
183.02327892124254 310.8646540769114 791.8829345703125 11 10 15
183.0518449872932 310.34769687655313 792.0065307617188 11 10 15
183.74974572098495 309.26039375197325 795.026123046875 12 11 16
187.61842335950607 300.7024087716593 811.7646484375 12 11 17
187.77049357779075 300.3660835986238 812.422607421875 15 14 20
187.86379528685703 299.9349916951922 812.8262939453125 12 11 17
188.4143938666222 299.64996817356075 815.2085571289062 15 15 17
188.6107732273588 299.3796364167206 816.0582275390625 14 14 16
378.831205483251 558.0142551015213 1639.0809326171875 3 3 5
380.0037543277612 557.3936213420219 1644.1541748046875 3 3 5
379.98143752949346 556.1870630186115 1644.0576171875 3 3 5
381.2966615305651 554.5785246634849 1649.7481689453125 3 3 5
381.6522349927249 552.7377196446362 1651.28662109375 2 2 4
386.410904289092 547.6927309277296 1671.8758544921875 2 2 4
388.8801127184157 541.5820421401083 1682.559326171875 2 2 4
399.43344730658816 520.4958532960624 1728.22021484375 6 6 8
399.57812561444786 519.4500203473763 1728.84619140625 5 5 7
399.73871627910023 518.4239303761 1729.541015625 5 5 7
399.7568010675827 517.2124715824393 1729.6192626953125 5 5 7
399.7570832015684 515.9779226588264 1729.6204833984375 4 4 6
399.743766477444 514.7258615653107 1729.5628662109375 6 6 8
400.0842175579711 512.6923907741758 1731.035888671875 6 6 8
400.08712353802366 511.4601811734878 1731.0484619140625 6 6 8
400.15384822563834 510.3093405220657 1731.337158203125 6 6 8
400.5320488334502 508.31703737730925 1732.9735107421875 8 8 10
400.61406518308905 507.18356338930226 1733.328369140625 5 5 7
400.77617937126416 506.1507403373583 1734.02978515625 7 7 9
400.7482481066813 504.87748938983606 1733.908935546875 7 7 9
400.7556400171062 503.648803336168 1733.94091796875 7 7 9
400.62681763924206 502.2493053819221 1733.383544921875 6 6 8
400.5996763498191 500.9777626082266 1733.26611328125 8 8 10
400.82780989064463 500.02483787030036 1734.253173828125 12 12 12
400.73053009238015 498.6655621406744 1733.832275390625 10 10 10
400.7958158966679 497.5086804577475 1734.11474609375 4 4 4
400.7556682305048 496.2208463327555 1733.9410400390625 4 4 4
400.75578108409906 494.9829869774876 1733.9415283203125 4 4 4
401.50744244876324 492.1904185032413 1737.1937255859375 10 10 10
401.74082368172253 489.9944262582883 1738.2034912109375 6 6 6
401.80187747622494 488.82766157338483 1738.4676513671875 6 6 6
401.84024769827823 487.6329931716451 1738.6336669921875 6 6 6
402.0589297505833 484.1722895780088 1739.579833984375 7 5 8
402.07075116458356 482.944464058599 1739.6309814453125 6 6 6
423.3231707579337 325.3917842648736 1831.5833740234375 122 130 117
424.12366951552013 315.5256059345103 1835.046875 97 99 95
424.0007719513554 310.1949502023548 1834.51513671875 101 102 97
424.30372742518483 307.79510458391024 1835.825927734375 101 102 97
424.421038736433 306.56909876061775 1836.33349609375 101 102 96
424.3454268282692 305.20361123309044 1836.00634765625 104 105 95
432.4419950958866 -262.06682901628926 1871.03759765625 141 143 130
432.32646122874826 -266.00339163682565 1870.5377197265625 145 147 136
183.5026194441579 311.84919882903324 791.5117797851562 11 10 15
183.5484097410096 311.36175168985375 791.7092895507812 11 10 15
183.55026342731603 310.799626096698 791.71728515625 11 10 15
183.62037805058557 310.3528628667287 792.0197143554688 11 10 15
184.21771785012146 310.2278278889562 794.5962524414062 10 9 14
184.29857253374652 309.7964148384562 794.9450073242188 12 11 16
184.33747164562703 309.2941078317859 795.11279296875 12 11 16
184.86693256568282 309.04382390566053 797.3965454101562 12 11 16
184.88855418916535 308.51057742940145 797.4898071289062 12 11 16
184.90345443100244 307.9660029800113 797.5540771484375 12 11 16
185.61718026008262 308.0114783189407 800.6326293945312 12 11 16
185.71894905333278 307.60840366357536 801.0715942382812 12 11 16
185.78575251174965 307.1468963840937 801.3597412109375 11 10 15
185.91225598945493 306.78349175208746 801.9053955078125 13 12 17
185.91633126927363 306.2176598409032 801.9229736328125 13 12 17
185.96220646778823 305.7205215926922 802.120849609375 13 12 17
185.98099803584108 305.1786589011727 802.201904296875 13 12 17
186.06769678392837 304.74790111902905 802.5758666992188 13 12 17
186.07978112061298 304.1946331396216 802.6279907226562 13 12 17
186.08177630969087 303.6248285276421 802.6365966796875 12 11 16
186.07833779234386 303.0461623221658 802.6217651367188 14 13 18
186.41862365720476 302.4521427669305 804.0895385742188 14 13 18
186.6389717729572 302.2348610925518 805.0399780273438 14 13 18
186.81098254197124 301.9380957388153 805.7819213867188 13 11 17
187.77150335479394 301.17748234133444 809.9249877929688 14 13 19
188.1836018761822 300.67939251926003 811.7025146484375 15 13 17
188.2983747741316 300.2828838354381 812.1975708007812 14 13 15
188.4047424074549 299.87229008656243 812.6563720703125 14 13 16
188.92472264182138 299.5362677262985 814.8992309570312 12 12 14
189.12759516529573 299.2754716427858 815.7742919921875 13 13 15
189.33839184397308 299.0259407857274 816.6835327148438 13 13 15
200.16881586935764 301.9523123785137 863.3989868164062 15 15 15
202.32944998767707 302.0960868161082 872.7185668945312 17 17 19
203.48960291050713 302.5749471463699 877.7227172851562 16 16 18
203.65762330136536 302.1975881654707 878.4474487304688 18 18 21
380.10768801373075 558.1702223879499 1639.5390625 3 3 5
381.15905360584514 557.3664322389666 1644.073974609375 1 1 3
381.1810431365335 556.2246841872981 1644.1688232421875 3 3 5
381.3033581322029 555.2288880436043 1644.6964111328125 3 3 5
382.64171964543795 554.8209189731327 1650.46923828125 3 3 5
382.83308799359077 553.9194073729494 1651.294677734375 4 4 6
382.92421577842543 552.8719881812999 1651.687744140625 1 1 3
388.88782178199784 544.7154129945635 1677.410888671875 2 2 4
389.11278288810064 543.8321859928161 1678.3812255859375 2 2 4
400.73966941305116 521.8239233770594 1728.5321044921875 4 4 6
400.8308820995487 520.708278374384 1728.925537109375 4 4 6
400.9439428139632 519.6203864485848 1729.4132080078125 4 4 6
401.1372072992539 518.6354946434438 1730.246826171875 3 3 5
401.13882043084874 517.402214164685 1730.2537841796875 6 6 8
401.1835636071915 516.2244214933975 1730.44677734375 3 3 5
401.15404612906025 514.9510267628921 1730.3194580078125 5 5 7
401.41342070918756 512.8115555936059 1731.438232421875 5 5 7
401.3962705732839 511.5534870692974 1731.3642578125 5 5 7
401.519038377822 510.47340961103873 1731.893798828125 5 5 7
401.8049871784337 508.36211681897083 1733.127197265625 6 6 8
401.93499992487176 507.28879037367085 1733.68798828125 6 6 8
402.0698803666488 506.220791749302 1734.269775390625 6 6 8
402.089464350222 505.00715494053753 1734.354248046875 6 6 8
402.0445230699992 503.7125552541169 1734.160400390625 6 6 8
401.9558574333883 502.3635857655767 1733.7779541015625 8 8 10
401.9286889012636 501.0918319573595 1733.6607666015625 6 6 9
402.1226892009661 500.09529958526434 1734.49755859375 11 11 12
402.08414384601423 498.8090857135796 1734.331298828125 7 7 7
402.10038836418045 497.590910588403 1734.4013671875 3 3 3
402.119151631679 496.37574455177355 1734.4822998046875 4 4 4
402.079728959544 495.0888174346528 1734.312255859375 4 4 4
402.30457686342953 494.1267209225309 1735.2821044921875 5 5 5
402.4917850301008 493.1171247783805 1736.089599609375 7 7 7
402.6704181288202 492.0958961357173 1736.860107421875 6 6 6
402.94397128665 489.94834958078803 1738.0400390625 6 6 6
402.939386596854 488.70186373024154 1738.020263671875 6 6 6
403.01712821950645 487.5550014022486 1738.3555908203125 6 6 6
403.05737160771605 486.3624117648485 1738.5291748046875 8 8 8
403.08903992797383 485.1592532774389 1738.665771484375 7 7 7
403.1686493872098 484.0134542013908 1739.0091552734375 7 8 8
403.1897049996064 482.79704984092695 1739.0999755859375 7 5 4
403.2594658659472 481.638687606609 1739.40087890625 6 6 4
403.32478354526353 480.4746025942845 1739.6826171875 8 6 6
418.9131250595274 470.66245016696956 1806.920654296875 66 67 58
419.0971635641174 465.70653745397146 1807.7144775390625 66 67 58
419.0362607712714 464.3483775094053 1807.4517822265625 61 65 56
418.93585040462744 462.94693466201784 1807.0186767578125 63 63 56
418.93986908333756 461.6611884505379 1807.0360107421875 65 66 58
418.66091051963707 458.77512718373913 1805.832763671875 68 69 61
418.6670800404737 457.49254086418335 1805.859375 71 72 64
418.7391049511583 456.2816762808442 1806.1700439453125 70 71 63
418.7309826920752 454.9832820366677 1806.135009765625 73 74 66
372.3136587593703 222.23873398478645 1605.920654296875 86 87 92
432.77940614540444 -233.4746351665587 1866.7308349609375 145 148 136
432.4360355201252 -238.6163965486959 1865.249755859375 146 148 136
438.40125465529246 -652.3448472666464 1890.9798583984375 159 159 157
438.2207254194352 -657.4744794432409 1890.201171875 162 162 160
438.1513041597459 -658.719676354264 1889.9017333984375 159 159 157
184.01362163625956 311.75750626527673 791.279052734375 11 10 15
184.06230655895138 311.2748820212132 791.4884033203125 11 10 15
184.1214665466422 310.80964145989964 791.7427978515625 11 10 15
184.17517609400835 310.3348536509779 791.9737548828125 14 13 18
184.77459678502828 310.21028940238125 794.5513305664062 13 12 17
184.84093886335526 309.75417110209435 794.8366088867188 12 11 16
184.89134124250356 309.2709828221116 795.0533447265625 12 11 16
185.38782809697508 308.96311252021496 797.1882934570312 12 11 16
185.4369672230273 308.47567951987344 797.3995971679688 12 11 16
185.44566805614977 307.9207995593268 797.43701171875 12 11 16
186.2050109115921 308.03826996028283 800.7022705078125 12 11 16
186.28946434891463 307.60603649984273 801.0654296875 14 13 18
186.3338769212478 307.1072908723149 801.2564086914062 14 13 18
186.48509825254771 306.7839821043754 801.9066772460938 13 12 17
186.48261432792057 306.20735835416247 801.89599609375 14 13 18
186.52928372320068 305.71130946321557 802.0966796875 11 10 15
186.53425157245493 305.14675547942835 802.1180419921875 14 13 18
186.6005652630719 304.68233678791336 802.4031982421875 11 10 15
186.62426900094226 304.14806798150266 802.505126953125 13 12 17
186.656560021095 303.62762225329595 802.6439819335938 15 14 19
186.66357178547102 303.0659349869954 802.6741333007812 14 13 18
186.8952864685451 302.8683411912648 803.6705322265625 14 13 18
187.0299861526108 302.5124072758927 804.249755859375 17 15 19
187.16982401219093 302.16394124023583 804.85107421875 14 15 20
187.37124900866897 301.91385274122024 805.7172241210938 13 13 18
188.12340977347512 301.39309453902956 808.9515991210938 13 11 14
188.2906275793738 301.08290627171925 809.670654296875 16 14 16
188.71851553257136 300.6083089263886 811.5106201171875 15 15 18
188.7922384155047 300.1461130828836 811.82763671875 14 14 16
188.92391480845282 299.7754224074257 812.3938598632812 14 14 16
189.4629548402509 299.4673699217321 814.7117919921875 15 15 17
189.63708505354046 299.16037986763 815.4605712890625 13 13 15
189.8489567273075 298.91174343533476 816.3716430664062 13 13 15
200.74481275199773 301.89147762596554 863.2250366210938 15 15 17
202.91011372181785 302.6558882416308 872.5360717773438 17 17 20
202.96434844181945 302.1136438831949 872.769287109375 17 17 20
204.11934500572667 302.5794918905169 877.7359008789062 19 19 22
204.32112484858 302.2512982466656 878.6035766601562 21 21 21
204.53724048499566 301.9430284566851 879.5328979492188 20 20 20
381.0910119363517 557.8960640643235 1638.7337646484375 3 3 6
382.41887546045245 557.4917835223068 1644.4437255859375 4 4 6
382.3494107340228 556.2166313575573 1644.14501953125 3 3 5
382.5013701457833 555.2633391078942 1644.7984619140625 3 3 5
383.893219568279 554.926584344276 1650.7835693359375 4 4 6
384.3041884463021 553.1608739251259 1652.55078125 5 5 7
390.3667529622402 543.909710751318 1678.6204833984375 2 2 4
402.1098969680283 522.0005900464569 1729.1173095703125 4 4 6
402.20661389608136 520.8912918807677 1729.533203125 4 4 6
402.36833868009035 519.865390874004 1730.2286376953125 4 4 6
402.5365074742748 518.8468027797135 1730.9517822265625 4 4 6
402.5771870627397 517.6632471015143 1731.126708984375 3 3 5
402.62987465254497 516.4948455361696 1731.353271484375 6 6 8
402.5696359318732 515.1816049347295 1731.09423828125 5 5 7
402.8745767129552 513.0980428597356 1732.405517578125 3 3 5
402.81118695647075 511.78060234796493 1732.1329345703125 6 6 8
402.9043270330608 510.6619451431043 1732.533447265625 5 5 7
403.059409092924 509.62103434683485 1733.2003173828125 5 5 7
403.2133272566762 508.57770325125387 1733.8621826171875 5 5 7
403.23370963247373 507.3654067624932 1733.9498291015625 5 5 7
403.32173992125934 506.2378948407226 1734.328369140625 5 5 7
403.38527161629395 505.0791676614041 1734.6015625 5 5 7
403.3230741436305 503.76301074868945 1734.3341064453125 5 5 7
403.328269094565 502.5312040689315 1734.3564453125 4 4 6
403.14496965093747 501.065087581658 1733.5682373046875 6 6 9
403.42050076443417 498.9303856021283 1734.7530517578125 4 4 4
403.4037520155198 497.6711445020877 1734.6810302734375 4 4 4
403.43940697931043 496.4764947691051 1734.8343505859375 2 2 2
403.4513582052307 495.2525288234452 1734.8857421875 4 4 4
403.6046518393624 494.20155895101885 1735.544921875 4 4 4
403.76487207474 493.1581079422296 1736.23388671875 3 3 3
403.9345170298458 492.1251555293965 1736.96337890625 5 5 5
404.05471059408904 491.0310651906368 1737.480224609375 5 5 5
404.1632084218022 489.9220593779425 1737.94677734375 5 5 5
404.1318683899353 488.64330680789436 1737.81201171875 5 5 5
404.19977179231364 487.4844390507445 1738.10400390625 4 4 4
404.0979166887461 486.1209385779421 1737.666015625 6 6 6
404.2115243042637 485.01659895218603 1738.154541015625 6 6 6
404.33092301262633 483.91849273023627 1738.66796875 8 8 9
404.3417671178556 482.69006439605556 1738.714599609375 7 8 4
404.4688588956348 481.5999852667601 1739.2611083984375 7 8 7
404.4046742832697 480.28196071574104 1738.985107421875 6 5 6
404.472634461068 479.1208633102555 1739.27734375 8 6 6
404.4635787815703 477.86835538893286 1739.2384033203125 8 8 8
404.54842964683314 476.7265640993077 1739.603271484375 8 5 7
404.59799458853576 474.30058497530086 1739.81640625 9 8 9
404.45287661489107 472.8887185381768 1739.1923828125 7 6 8
419.78908146617584 459.88790419209647 1805.1397705078125 66 67 60
419.746187636329 458.5522115844396 1804.955322265625 70 71 63
419.7980803702536 457.3200410404122 1805.178466796875 70 72 64
419.89493923685677 456.13639904971683 1805.594970703125 71 72 64
419.98532570557444 454.94515114424325 1805.983642578125 71 72 64
425.6655361551941 301.65943088773906 1830.4091796875 101 102 96
425.76265051118753 300.4210804121233 1830.8267822265625 108 109 102
374.792659100951 219.57956533120162 1611.650146484375 86 86 89
425.6861172449618 157.910811271052 1830.4976806640625 110 113 102
