ply
format ascii 1.0
element vertex 689
property float x
property float y
property float z
property uchar red
property uchar green
property uchar blue
end_header
-1129.0171277286895 -2005.1175520005104 -918.8780021142604 86 89 106
-1130.3827044002896 -2004.6892259004048 -919.2256434838637 86 89 104
-1134.4309301905678 -2003.276624425263 -920.1639768876908 94 97 110
-1135.688350592853 -2002.5882833543365 -920.2942612803381 94 97 114
-1149.7607218017088 -1995.4711657032367 -922.1310412672824 85 84 101
-1007.6705707217587 -1630.569226562096 -621.5267684950009 76 17 16
-1008.8049008968021 -1524.316242837726 -553.4281522754084 20 14 13
-1009.4760376381745 -1523.2805459864799 -553.0661079953172 19 14 12
-1010.1281384213929 -1522.2084705266502 -552.6718687934122 19 11 8
-1014.2018515689778 -1518.461936812003 -552.1146222943023 23 5 0
-1101.4627682268133 -1343.4533937406227 -478.9856369131066 133 142 173
-1101.9654516573048 -1340.5875085878065 -477.3646690332666 140 149 182
-1103.7234481470573 -1321.8717153393573 -466.08182789209985 141 154 188
-1104.0804090470324 -1320.6267645935222 -465.44102929188233 139 152 186
-1104.4708130153385 -1319.430464145138 -464.846936518685 141 154 188
-1105.2184553452166 -1318.73193046929 -464.73760221211575 140 153 187
-1105.7328671204418 -1317.7104013173985 -464.3130631319587 143 156 190
-1106.3397582249613 -1316.8180446468589 -464.01421775849855 142 155 189
-1106.7694187747284 -1315.6819222229274 -463.4769328567425 143 156 190
-1107.1322557424446 -1314.4554922126447 -462.85078091446286 148 161 195
-1107.6361961695338 -1313.425137263793 -462.4157554199522 144 157 191
-1108.0361689958854 -1312.253452761493 -461.8419336296453 145 158 193
-1108.5389148707834 -1311.2244085698112 -461.4072085402169 142 155 190
-1108.9940174235317 -1310.1315686538805 -460.9095054470968 144 157 192
-1109.6897987560487 -1307.6585772067178 -459.6305359834543 143 156 190
-1110.1568411450462 -1306.5872351245944 -459.1521740788082 146 158 192
-1110.719229043388 -1305.6467644185582 -458.80191323642833 144 157 192
-1111.1841820086318 -1304.57534447394 -458.3225459042457 141 157 189
-1111.7367253477955 -1303.6238287457309 -457.9606520191491 141 157 190
-1112.2228271971915 -1302.583718543026 -457.5111720717228 143 157 191
-1112.6494481877291 -1301.4648882583351 -456.98366478432416 142 156 191
-1113.2926070330764 -1300.6388079675714 -456.74419924370176 144 158 190
-1113.7767859528765 -1299.6000107292066 -456.29468816133107 143 158 192
-1114.3905755326916 -1298.736165006456 -456.0174084051884 145 157 192
-1114.85194837367 -1297.669314963202 -455.5393556782207 145 159 191
-1115.4087823710893 -1296.7313119680457 -455.1881495880653 145 160 193
-1115.9989015525616 -1295.8386385996694 -454.8814326935904 145 160 193
-1116.5060838730083 -1294.836562306826 -454.4661512600871 146 161 194
-1117.1673924072297 -1294.0402102787657 -454.2541807688105 144 159 192
-1117.875867120697 -1293.306793663895 -454.10441458281053 149 164 197
-1118.4990112279474 -1292.4608330043354 -453.8429610924449 148 163 196
-1119.0360728117275 -1291.5019668376697 -453.4692431425179 146 161 193
-1119.6041031367727 -1290.5849646418365 -453.1367173783653 146 161 192
-1120.1960334737819 -1289.700303744361 -452.8360027996999 143 160 194
-1120.9011098093097 -1288.9648891202874 -452.6833928076282 146 162 196
-1121.6714847636472 -1288.3152333211299 -452.6160151985276 144 161 194
-1122.4255043673875 -1287.6441328743033 -452.5273122704411 146 162 196
-1123.1212240159052 -1286.8969862731917 -452.3628486293006 150 165 200
-1124.0482508718685 -1286.4513378558277 -452.4988277913165 152 169 201
-1124.6799550244523 -1285.621016126285 -452.25138685146516 157 176 207
-1125.3669904328044 -1284.8630817591868 -452.07598672136845 164 182 220
-1126.0438678133137 -1284.0923286824536 -451.88766482134116 163 181 218
-1126.6746171338523 -1283.2623372062512 -451.64000067062415 160 177 214
-1127.7011256964274 -1282.9435246021412 -451.9033655597372 157 175 211
-1128.1500815209442 -1281.8796900638276 -451.42158398809084 154 171 208
-1128.8238566629457 -1281.1062931202332 -451.2301365684471 155 173 209
-1129.4397563533926 -1280.2590382950489 -450.96453565589485 155 173 210
-1130.143375781483 -1279.5247815662644 -450.8120074209135 156 173 210
-1130.9682151455518 -1278.9457153223861 -450.81511335098645 153 171 208
-1131.7547944752314 -1278.3175092905622 -450.76899535132014 153 173 204
-1132.643726383132 -1277.8194997699247 -450.8537457555264 154 173 206
-1133.6944293307613 -1277.526489285016 -451.14483345872594 156 176 209
-1134.6175954428456 -1277.070280528621 -451.2722279815718 155 175 207
-1135.469809723854 -1276.5234356468902 -451.3086561374426 157 176 209
-1136.576887877513 -1276.2983028178726 -451.669349549415 159 178 211
-1137.3926868960339 -1275.704021615749 -451.6584971647607 158 177 210
-1138.2780698456422 -1275.1970987796535 -451.73586908929695 159 175 210
-1139.1331882286113 -1274.651534869396 -451.77445204526936 160 178 209
-1139.9057220116138 -1274.001895667462 -451.70807202646125 154 174 206
-1140.7401688824643 -1273.4297266114972 -451.72002400324874 159 178 210
-1141.4362273363045 -1272.684203183032 -451.55676347052366 160 179 211
-1141.973056148237 -1271.7402796910164 -451.19258894861383 161 180 212
-1142.5929255167957 -1270.9007979049888 -450.93382246119216 163 182 214
-1143.5486799540854 -1270.4795130444118 -451.0986677014168 162 181 213
-1144.4175440733457 -1269.949495773767 -451.15357415845114 162 181 214
-1145.326278125067 -1269.4683505441567 -451.25826757448164 161 180 211
-1146.2897662435091 -1269.0542072940193 -451.431260119486 156 175 205
-1147.187284788685 -1268.5577167762763 -451.5209167169858 163 182 212
-1157.0157381259355 -1267.7833674037352 -455.51376033352 153 170 199
-1162.416847068182 -1267.9335556966348 -458.0797759771522 150 165 194
-1182.3939878152746 -1270.9935204793333 -469.18808342134975 180 194 226
-1183.2481790481902 -1270.4026411363589 -469.19697827530166 172 190 213
-1296.1139322250706 -1394.0366051539845 -600.6332721304627 96 109 125
-1299.8887980113104 -1394.788573584396 -602.8445020863164 100 111 121
-1300.8502675791315 -1394.0846718592672 -602.829448645831 98 107 120
-1301.8449900612432 -1393.4189518696712 -602.854253609958 104 111 125
-1310.1054968547528 -1393.8529710017497 -606.910689787378 107 114 124
-1319.764222403879 -1393.981322937851 -611.408901052152 111 118 128
-1322.7137383291858 -1393.695304238217 -612.5725141801104 112 119 129
-1328.7513001261282 -1393.2503624314836 -615.045144167605 113 120 130
-1331.3102989735717 -1392.4990284184614 -615.7297428678824 112 119 129
-1335.8349668984142 -1392.1234341107051 -617.5555629906564 119 124 138
-1337.1400842942512 -1391.7679555054433 -617.9226106384799 115 121 134
-1340.1592145380723 -1391.5042965110258 -619.1324864560574 115 121 134
-1350.2546306062397 -1391.7907824512586 -623.9324448169825 117 123 135
-1276.6795539100647 -1270.9378179849214 -512.2531611323259 138 149 166
-1283.5437886348577 -1268.6372312332878 -513.905332972304 143 154 173
-1293.3385660102322 -1266.1568223241015 -516.7810253355842 149 160 178
-1294.5913149303078 -1265.8689715267692 -517.1678070101732 141 152 170
-1295.5352401298549 -1265.2659042293851 -517.2098513634967 141 152 170
-1300.1932689879304 -1265.2987714111264 -519.360415684047 139 150 168
-1309.155558485862 -1264.9396685297534 -523.225469364083 137 148 166
-1313.3719385294185 -1264.4645730663829 -524.8461040123511 139 150 168
-1316.1473972118447 -1264.102426401429 -525.8809871107319 125 136 154
-1400.6228548870304 -1315.8847898683193 -597.9380648452309 129 131 144
-1490.621913329605 -1327.5029253152297 -646.5824905580912 135 139 150
-1543.9478652808411 -1330.2684114475692 -672.7454708104904 137 142 154
-1545.157329030556 -1329.6190709003226 -672.8790187950347 138 141 152
-1108.503391549326 -2445.3280898529447 -1196.0701807923926 22 22 21
-1109.9916009156755 -2444.6025499227026 -1196.282454118639 22 22 22
-1111.4898370595324 -2443.905301857053 -1196.5176138599743 22 22 22
-1116.7590379541602 -2444.1476782392333 -1199.0871104105488 21 21 21
-1118.3664888213893 -2443.7648992841414 -1199.5756334652624 24 24 24
-1119.8321446256123 -2442.950145121665 -1199.7198884312668 23 23 23
-1138.2517457628906 -2445.7698157218074 -1209.9775684927204 29 27 28
-1139.5979501457373 -2444.5563875616554 -1209.809320998673 28 26 27
-1141.03570997032 -2443.611026827148 -1209.856344624701 29 27 28
-1144.2624772319646 -2442.7394484894003 -1210.770264978548 26 24 25
-1145.3967505438022 -2440.9062029365195 -1210.1041645151925 26 24 25
-1146.7569060269866 -2439.7306665464594 -1209.966808236491 25 23 24
-1147.9261771477784 -2438.0033153369777 -1209.3852106708184 27 25 26
-1149.3947156348795 -2437.141445294507 -1209.5003177487959 28 26 27
-1151.0207851840096 -2436.730960315176 -1209.9794499544757 28 26 27
-1152.583643557301 -2436.1352297746926 -1210.309847281462 28 26 27
-1156.4589297762054 -2437.07447143259 -1212.6917052539716 28 26 27
-1157.6866999301649 -2435.510397311732 -1212.242478790688 27 25 26
-1158.947075849716 -2434.0407527378616 -1211.869246107266 30 28 29
-1053.1112340252153 -2046.5194031899282 -912.8132968231919 68 71 69
-1057.0849464549901 -2037.3895901797705 -908.7289882490238 71 72 73
-1059.618163028267 -2032.3544384992788 -906.6329239777253 69 70 75
-1062.3443842977476 -2027.8564221354582 -904.972579272729 67 69 74
-1063.62631902774 -2027.3403742231208 -905.2258693575338 63 63 72
-1064.7154059695017 -2026.3177912956276 -905.0632996570355 73 73 79
-1066.1210532678328 -2026.1213458921075 -905.5799111577364 69 69 79
-1067.310230730123 -2025.3577593444038 -905.6306549161609 74 74 84
-1068.2279653645041 -2023.888306975091 -905.1006514164565 74 74 86
-1069.408541405035 -2023.1020866010422 -905.1328202450757 78 78 89
-1070.4903770000624 -2022.0597766133933 -904.9541734967127 79 79 92
-1071.4859006555905 -2020.7952335190544 -904.5922957566252 73 73 85
-1074.1822437840287 -2020.0801297182543 -905.3645209499962 71 71 80
-1075.3701583835202 -2019.3079239720942 -905.4091127702472 71 71 83
-1076.5754218471475 -2018.5790638858357 -905.489678440591 71 71 82
-1077.7705732257004 -2017.823268021541 -905.5481955579571 69 69 83
-1082.1520632799638 -2017.563852196131 -907.3867221911721 74 74 86
-1087.9048117644088 -2016.9362391317309 -909.6150489797712 72 72 84
-1089.0646997593658 -2016.0737587258063 -909.588430604997 68 68 80
-1096.4183665868381 -2015.5952790370889 -912.6462546318053 67 67 78
-1097.7028852365652 -2015.0280243052603 -912.8676145860509 67 67 79
-1098.8749719731425 -2014.1821845667223 -912.8573428254863 71 71 83
-1100.2134053044044 -2013.7440862806225 -913.1869103217462 69 69 81
-1101.4735658629857 -2013.1117520071102 -913.3550325169481 73 73 85
-1102.6639847868094 -2012.3073653001875 -913.3799609857374 71 72 83
-1103.8271165339506 -2011.4356176431902 -913.3488351788744 80 80 92
-1105.2076796964197 -2011.0922511266085 -913.7589529499069 78 77 89
-1106.512587239989 -2010.562328514779 -914.013790076534 76 76 87
-1107.8157237705786 -2010.0260283571693 -914.263692166393 79 80 91
-1109.186813441715 -2009.6518323240334 -914.6495358783211 77 74 86
-1112.034238507863 -2009.1481520681668 -915.6276600910646 79 80 92
-1113.2610075964385 -2008.4187517690734 -915.7177238328766 77 81 93
-1114.5800736097071 -2007.9091192200513 -915.9921648423974 74 77 88
-1115.931441873463 -2007.474460069332 -916.3298791762713 75 77 92
-1117.335821122902 -2007.1636073153968 -916.7719275982065 72 74 89
-1118.5801571872162 -2006.4691631288142 -916.8926398943804 74 79 93
-1122.8536593747826 -2005.6541763621426 -918.3224545377041 79 81 95
-1124.240672442139 -2005.287697712165 -918.720580065444 79 78 98
-1128.3318358390597 -2004.0078745919182 -919.7663117605882 77 80 97
-1129.6581281017332 -2003.4887893897107 -920.0379490277958 75 78 95
-1130.8740040246248 -2002.710344840908 -920.0913099381901 77 80 97
-1133.740261587889 -2002.1582772828492 -921.0467674916638 82 85 103
-1134.8866659916157 -2001.2139457818162 -920.9610453196863 94 97 113
-1136.0653240591819 -2000.3438620974161 -920.9381050210163 93 96 111
-1137.265861109357 -1999.5236276617075 -920.9574185076274 89 92 107
-1138.4540802225556 -1998.6743060952153 -920.9522821941573 88 91 106
-1139.724122306603 -1998.0119881688975 -921.1055399580282 89 93 106
-1141.0332448499394 -1997.4376159620379 -921.3335634380021 88 90 107
-1142.4062320421986 -1997.00718356078 -921.6839103197365 87 90 103
-1143.793953191304 -1996.6078041230762 -922.0610845163646 88 91 104
-1144.7338698199787 -1995.1879335272451 -921.5733005856807 90 91 105
-1145.943032219604 -1994.3805778406008 -921.6048917587732 81 83 99
-1149.0408422193445 -1994.2975497991483 -922.9696851498093 83 82 98
-1150.0449502729125 -1993.0223551833647 -922.6048503044531 89 86 104
-1151.5075331508478 -1992.7789815043143 -923.1171860012344 88 87 105
-1153.253383084117 -1989.6430488072015 -921.8887326701097 82 82 97
-1154.4685034160711 -1988.8429855998816 -921.9277677154073 81 78 95
-1013.6490955136438 -1601.4071241569363 -606.9081595652299 83 5 2
-995.8420877530881 -1531.9007599003494 -553.8074944530301 142 67 35
-997.6010716261334 -1528.2653830861427 -552.2620855536331 142 85 41
-998.2135291960839 -1527.1107453695158 -551.795873433638 138 86 42
-1002.4925695425914 -1523.8085831454919 -551.6198718262126 121 107 44
-1008.8837653812067 -1522.3285815688591 -553.5893390891843 17 13 13
-1009.9518132309896 -1522.0804888324287 -553.9179659685578 17 14 9
-1010.4759320852921 -1520.75612612258 -553.301549595194 19 12 7
-1012.4876258104124 -1520.0097247773665 -553.7400356905218 30 16 14
-1014.9274778251696 -1503.8151657183898 -544.3848986505864 150 47 37
-1015.7528324645109 -1503.1055622658128 -544.3039569028133 136 37 25
-1022.2479796576891 -1497.222810795406 -543.4739494851462 172 46 34
-1024.0705713505236 -1496.1276905559575 -543.6003440468351 168 40 23
-1025.8870649343671 -1495.0182291858046 -543.7146724820186 168 38 18
-1026.7910670039046 -1494.454501615015 -543.7640751363454 170 35 16
-1027.7813532806545 -1494.0515540154247 -543.9569569156613 170 38 19
-1115.2460742966455 -1523.014403798118 -602.7360280590776 71 15 7
-1116.1476805960506 -1522.2905157383652 -602.6807646143182 69 9 7
-1116.7397894464552 -1521.0513776005114 -602.1505919534202 79 16 10
-1121.4626624545626 -1515.5797066200435 -600.7748904630753 93 23 12
-1138.2318034786467 -1507.7380127547458 -603.382568721823 68 14 18
-1138.9133838640932 -1506.6556883570443 -602.9947698647338 49 2 7
-1139.726226943806 -1505.7829425617779 -602.8026017679501 67 28 35
-1100.9727709142999 -1342.7573365824765 -479.6356029877141 135 144 175
-1101.547538101076 -1339.9950289945828 -478.11251972583506 135 144 176
-1101.8857572118434 -1338.6902917613943 -477.4236710165989 137 145 179
-1103.0968956413576 -1322.735284685839 -467.6608154681499 138 151 185
-1103.4558679796878 -1321.4907401512448 -467.0203937377823 140 153 187
-1103.8031481555727 -1320.2320535828699 -466.3654731169831 140 153 187
-1104.278541324024 -1319.1537063379046 -465.88583319441494 139 152 186
-1104.8789412820715 -1318.250371394353 -465.57660688084826 142 155 189
-1105.482632398047 -1317.3524563656395 -465.27239241711317 138 151 185
-1105.9521270122978 -1316.2698381077143 -464.7872896672405 143 156 190
-1106.3959803322014 -1315.1533714362247 -464.26855744297126 144 157 191
-1106.7811253331051 -1313.957703746761 -463.6717267570662 143 156 190
-1107.2798314268753 -1312.920127196807 -463.2291265004132 143 156 190
-1107.6856327847527 -1311.7564323970212 -462.6624298682694 143 156 190
-1108.217136535808 -1310.7667516386705 -462.26581982841566 143 156 190
-1108.561157496135 -1309.5219567923905 -461.61839001070945 145 158 192
-1109.018095104364 -1308.4333884627 -461.1236897580173 142 155 189
-1109.3583354423993 -1307.187448113716 -460.4737880484808 143 156 190
-1109.860988882448 -1306.1644462021982 -460.0424200858733 143 155 189
-1110.445577161078 -1305.253935652388 -459.7213134559326 141 157 189
-1110.8475816355221 -1304.0970505626287 -459.1572817887873 144 159 192
-1111.5116941856872 -1303.2962922582346 -458.94356142348687 143 157 189
-1111.981285125742 -1302.233569196368 -458.4713681708883 143 156 191
-1112.4247669231163 -1301.1371545444226 -457.96543262778056 142 159 190
-1112.9793978955813 -1300.1917384435897 -457.60803661937877 144 158 192
-1113.5053513777816 -1299.2088782075166 -457.2132956628961 146 160 194
-1114.0979338180564 -1298.3164143915576 -456.9075196184121 145 162 194
-1114.6987972038905 -1297.435852554047 -456.61323192157164 145 159 194
-1115.1768793058636 -1296.3922744531287 -456.15730700781916 145 161 194
-1115.7910057014087 -1295.531256180655 -455.8817304347926 143 158 191
-1116.397511800024 -1294.6608266411415 -455.5965786631985 144 159 192
-1117.0151553832975 -1293.8059253104893 -455.3265681769747 143 158 191
-1117.47845800899 -1292.747344222721 -454.85417395254655 147 162 195
-1118.1518309206913 -1291.9678696135604 -454.6584571716996 145 161 193
-1118.820595079933 -1291.1827292977864 -454.45696627253886 145 161 196
-1119.4421689434903 -1290.3358856734699 -454.19396603889555 149 161 198
-1120.162018007864 -1289.6188728412699 -454.0599220568998 146 161 195
-1120.7291117659213 -1288.7016475399068 -453.7264625547087 144 159 195
-1121.5153472213092 -1288.0722994448001 -453.67950594852783 146 158 194
-1122.261523466137 -1287.3904507545972 -453.5802563339558 148 164 197
-1123.0930512519608 -1286.8199986017344 -453.59212457966913 151 166 200
-1123.8390408002126 -1286.1378023993248 -453.4925647553337 149 163 197
-1124.5208031920492 -1285.3721832165552 -453.3096492329508 152 168 202
-1125.149640065176 -1284.5382682039804 -453.05833511580425 152 170 205
-1125.8451857350096 -1283.7913490986675 -452.8938234994901 154 171 208
-1126.5254636040995 -1283.0249910835735 -452.70975044369305 152 171 207
-1127.285858608507 -1282.3623546100257 -452.62943532074115 153 171 208
-1127.9655338236012 -1281.5957601009368 -452.4449333795148 151 170 207
-1128.5882664589437 -1280.7563467748955 -452.1872686089329 151 168 204
-1129.2270278178416 -1279.9381341639464 -451.9506529893243 153 170 207
-1129.8619781248808 -1279.1156009520193 -451.70949834118284 152 171 206
-1130.8003743143752 -1278.6814827985877 -451.8584630093838 156 170 207
-1131.6361018781258 -1278.1155204229458 -451.8751576801023 156 175 209
-1132.3905629342812 -1277.4456983771565 -451.7874787995624 162 180 212
-1133.1835552352395 -1276.8248587182197 -451.74911819552216 160 179 211
-1134.1677287270352 -1276.4463906874498 -451.9550308482166 160 178 213
-1135.1455469093332 -1276.0588036188828 -452.15213651125094 160 181 213
-1136.0446755828411 -1275.5707175536063 -452.248221834958 157 177 209
-1137.0228367937711 -1275.1816749806833 -452.4445433567765 159 179 211
-1137.9131057297618 -1274.6809170659462 -452.52837746124254 161 176 211
-1138.7240527568188 -1274.0798341531927 -452.51101416864395 158 176 210
-1139.596598050754 -1273.5557854717035 -452.5716714717801 159 179 210
-1140.3840897041437 -1272.9246881106205 -452.5241589004051 158 177 209
-1141.0137049813138 -1272.0961056665142 -452.27664956232417 160 179 211
-1141.6951659890392 -1271.3328017761055 -452.0950932390244 162 181 213
-1142.3522083777166 -1270.5394371671102 -451.8829166468003 160 179 211
-1143.251657031818 -1270.0478666886518 -451.97689526528046 162 181 213
-1144.311366455972 -1269.7544942593445 -452.2724235073783 164 183 215
-1145.09833102117 -1269.1219409953478 -452.2237281114205 166 185 216
-1146.1264111795458 -1268.7873261109755 -452.4781035760374 165 184 213
-1146.988672527626 -1268.2468677044149 -452.5234403887784 163 182 211
-1150.772688761787 -1268.0918125787707 -454.1558700407422 159 178 208
-1153.2917395988816 -1267.972645531499 -455.2322806003595 161 179 209
-1154.510391808938 -1267.8598070457933 -455.71733232540913 156 173 202
-1155.7584937774232 -1267.7807851944954 -456.2377368665563 152 169 197
-1156.9176766884332 -1267.5914666788162 -456.6461012269007 150 167 195
-1178.8494280535015 -1271.5151839280352 -469.2259321315909 182 197 231
-1181.0807415115066 -1270.955183986055 -469.8855198644431 182 198 226
-1182.096935041593 -1270.5557516161907 -470.0925377013321 176 195 227
-1294.7625840745159 -1394.1752962255982 -601.6216078668288 96 110 126
-1295.6569647060655 -1393.3979738282615 -601.5284820483885 97 108 121
-1299.3585271454426 -1394.0647047974821 -603.654570827845 100 110 122
-1300.3250569894699 -1393.3668862847182 -603.6458938940634 100 112 124
-1301.428121023992 -1392.8267321896028 -603.801690805155 103 113 123
-1309.893809674503 -1393.4954364096757 -608.11054430184 107 114 124
-1322.4190760142387 -1393.2396953024531 -613.680474359413 113 120 130
-1328.4386884660644 -1392.7731741267085 -616.1351692712306 110 117 127
-1329.8168802190116 -1392.5084917690187 -616.5950829252688 113 120 130
-1331.2121101025643 -1392.260917141044 -617.0738611746056 111 118 128
-1332.4188889748639 -1391.8010927989708 -617.3290948936224 113 120 130
-1335.3695085804015 -1391.4747726627306 -618.4691631431631 115 123 132
-1336.7464625941645 -1391.1990154404627 -618.9213483867059 117 125 134
-1348.6291605240338 -1391.6742961091077 -624.6697681588048 115 121 133
-1349.7311621898561 -1391.0783410747872 -624.7889944827073 113 119 133
-1350.696083662663 -1390.3319917448566 -624.7481982310608 114 120 133
-1353.5497963665368 -1389.8435099453532 -625.739029751916 110 116 131
-1354.6311331540776 -1389.2210969130178 -625.8316843695513 114 120 134
-1355.500541736743 -1388.368350267202 -625.6783501729292 115 121 134
-1356.4251509165056 -1387.5754872702032 -625.5890165222058 117 123 136
-1357.7520613519046 -1387.2169789767684 -625.9647752096428 115 120 134
-1359.1981062881546 -1386.9852579073417 -626.4770734536771 116 121 134
-1271.0561289762186 -1274.3654216934801 -513.2904189966464 139 145 166
-1274.9046109743545 -1270.512833655051 -512.5613278315436 143 153 173
-1275.921710127908 -1270.001429849855 -512.6963531163306 147 158 176
-1277.0591671822767 -1269.614836797523 -512.9672000502685 148 159 177
-1278.172223725499 -1269.2016251582195 -513.2096608891804 148 159 177
-1279.2089017924186 -1268.7079040008525 -513.365085966647 143 155 172
-1280.2684177185643 -1268.2370576837357 -513.5457606782045 139 150 169
-1281.5146659253319 -1267.958717234133 -513.9364253965991 140 151 170
-1282.6234218307768 -1267.536622106071 -514.1711723977023 140 151 171
-1283.8803032465119 -1267.2663141421353 -514.5719003239683 139 150 167
-1285.0300390607094 -1266.8839956002423 -514.8511338367557 139 150 168
-1287.672703717787 -1266.4679489780328 -515.7921674593933 138 149 167
-1288.7519089479006 -1266.0090524164066 -515.989585290082 138 148 167
-1289.923029448315 -1265.6432067612445 -516.2892631553393 151 161 180
-1292.6858622504737 -1265.336256676229 -517.355869813236 150 161 179
-1293.926296308183 -1265.0362801280226 -517.7298810799805 145 156 174
-1295.0348806309637 -1264.6008882314568 -517.9559510504264 143 154 172
-1298.0958100897262 -1264.5806419648984 -519.344455221669 133 144 162
-1300.723327568277 -1264.1131584439818 -520.2452908787325 134 145 163
-1304.0446795500939 -1264.33551246578 -521.909921709482 134 145 163
-1311.753762415331 -1264.2470896874852 -525.3827238524052 141 152 168
-1316.183489898633 -1263.9695565694203 -527.2316226627174 137 148 164
-1317.5183437217702 -1263.7323709916332 -527.6894729369787 142 153 170
-1322.175035942832 -1263.6511497070444 -529.7692453153527 143 152 170
-1385.4955811691082 -1315.9393564616867 -592.5762532909141 123 131 140
-1388.4088573132387 -1315.4684836218703 -593.6057458288865 121 126 137
-1389.7302908572988 -1315.099312421036 -593.9721013976816 119 127 137
-1390.6079119466303 -1314.3001536349766 -593.8571807236171 121 125 135
-1543.6880357756777 -1329.7860085768493 -673.9664722263144 135 139 150
-1545.0236841273054 -1329.2427828277775 -674.2267829571454 136 140 152
-1546.1327821438795 -1328.507618342188 -674.259237773098 135 140 149
-1107.7880908341795 -2444.1854143523383 -1197.2906771337987 21 21 19
-1109.2640063279232 -2443.423036835277 -1197.4739692576231 21 21 21
-1112.4124451361722 -2442.4914945008923 -1198.314851903187 21 21 21
-1116.195058228565 -2443.4696662537876 -1200.6831996345495 22 22 20
-1117.7371838432987 -2442.888984992669 -1201.014513269727 21 21 20
-1118.9808967255844 -2441.404294128971 -1200.623584755292 24 24 23
-1137.5320644411026 -2444.6343375297647 -1211.2239108566512 26 24 25
-1139.0295209869714 -2443.865489943649 -1211.4128935817357 29 27 28
-1140.4982504079767 -2443.0103781995394 -1211.5328418038991 27 25 26
-1143.504562180417 -2441.4956470010825 -1211.9309052273304 24 22 23
-1144.7205076632708 -2439.900291492504 -1211.4555824344386 26 24 25
-1146.0130312571628 -2438.5289390570965 -1211.160431392792 25 23 24
-1147.1674237226152 -2436.7590409920494 -1210.5438553547767 27 25 26
-1150.4029318915257 -2435.8942646033274 -1211.4679064777722 27 25 26
-1151.9689937297285 -2435.307815159007 -1211.8064637873183 26 24 25
-1156.0546688697675 -2436.848977639119 -1214.678367294843 26 24 25
-1157.1482626841575 -2434.900798949902 -1213.9184635148024 29 27 28
-1052.8684876594648 -2046.54261875872 -914.6165721724246 68 70 68
-1059.3772723107272 -2032.3653375576168 -908.4217599073781 73 74 79
-1060.2865076092712 -2030.862792067991 -907.8658566103852 64 65 71
-1063.2888727968761 -2027.0904262990339 -906.8002310189936 67 67 75
-1065.6551849526793 -2025.5341392357977 -906.8778399602215 83 83 94
-1066.8292016035514 -2024.7307814222172 -906.8961255651823 83 82 92
-1067.9323975670773 -2023.7426288025817 -906.7622685554204 77 79 88
-1069.0615174358268 -2022.8217096044727 -906.6838373959863 69 70 84
-1070.0829384976662 -2021.6220776786636 -906.3755345193117 65 67 79
-1071.1510881860431 -2020.5440224418635 -906.1673886286405 68 69 81
-1073.7616948273671 -2019.6069537940552 -906.7580076082402 70 69 82
-1074.9936642320456 -2018.947010653983 -906.8957390025591 68 68 80
-1076.1981422378742 -2018.2153294252312 -906.9744086981752 71 71 83
-1077.3462611985383 -2017.338826720611 -906.9334526419013 72 72 84
-1080.2531826029217 -2017.1337858894026 -908.1339886916126 69 69 81
-1087.5808426617082 -2016.7012891839754 -911.2148826754235 65 65 77
-1094.6475742732905 -2015.5188411109916 -913.6904841032836 64 64 76
-1095.9509854867688 -2015.0001340965118 -913.9524375872597 68 68 80
-1097.1519442539238 -2014.2265008616287 -914.0023280808134 70 70 82
-1098.3518930318096 -2013.4494069238017 -914.0495144289691 70 70 82
-1099.762089183138 -2013.18769007122 -914.5268545265287 66 66 78
-1100.929477549534 -2012.3277157034736 -914.5054392287786 65 65 77
-1102.1957588744442 -2011.7089126519618 -914.6855476372177 71 71 83
-1103.3141023010676 -2010.7276141567386 -914.563076480119 75 74 86
-1106.1161254394128 -2010.137446691249 -915.4661194703301 66 66 78
-1107.456524228333 -2009.6907997636417 -915.7916987270546 66 64 77
-1108.78161003866 -2009.2046749852911 -916.0846914782455 68 66 81
-1110.1278330261198 -2008.7672237078873 -916.4188965255453 69 67 81
-1111.4973201813364 -2008.383224760939 -916.798383866944 69 66 81
-1112.883165660794 -2008.0357328002756 -917.2090134638852 67 66 81
-1114.097499576876 -2007.2746143800923 -917.2731423587493 77 75 89
-1115.3941519213577 -2006.7091346247835 -917.5017091781438 75 78 95
-1116.6138004760942 -2005.9581736833452 -917.5748529556233 69 71 87
-1119.3002254601033 -2005.0394312463914 -918.2121139296444 81 83 97
-1122.1142638892916 -2004.412544155466 -919.0968909820999 79 82 96
-1123.5339219173516 -2004.1242980766929 -919.5613925345781 78 82 95
-1124.9316848643994 -2003.7813911438902 -919.9804571948641 77 81 97
-1127.6170761472863 -2002.8289992474188 -920.5954551192356 84 87 105
-1128.915630310466 -2002.2462238417106 -920.8136948409883 84 87 104
-1130.158584123375 -2001.5320380297085 -920.9213408250064 83 86 101
-1134.1245468324692 -1999.9308199163306 -921.7035607350845 85 88 104
-1135.343295765324 -1999.1545396325664 -921.7598969344683 80 83 97
-1136.4547073560989 -1998.1299492641501 -921.606213733829 83 86 101
-1137.7255465939347 -1997.4720488813932 -921.7630961319858 82 85 99
-1139.0553663029914 -1996.9479514966874 -922.0336718810574 78 80 96
-1140.2967315187648 -1996.2192950883223 -922.1312191311579 86 86 102
-1144.155928027301 -1994.333420728674 -922.6801464911885 83 85 100
-1145.1812734318396 -1993.1093315248413 -922.3578068337958 82 85 100
-1148.350988839762 -1993.1915135360573 -923.8648619929652 82 81 97
-1149.6543725878937 -1992.5914182180286 -924.0741017731318 86 85 100
-1150.8385345565403 -1991.7215016871141 -924.053942136419 81 82 98
-1152.7410126747786 -1988.9371838600232 -923.1236234497717 84 83 100
-1153.7876919214018 -1987.76082651367 -922.8419765526126 81 78 93
-1154.872293750274 -1986.6697846892853 -922.632967533111 78 76 92
-1013.583223521198 -1601.5529755275616 -608.4550521420449 82 3 0
-993.215690227844 -1534.0202611499858 -555.3839195456271 132 33 15
-994.5107092685752 -1531.8371887068456 -554.5643026346086 121 33 11
-998.1978934111081 -1524.923984204314 -551.7790028864031 124 64 24
-1009.5524705764265 -1521.5112055409518 -554.7770937035564 18 10 9
-1014.2058422522808 -1502.622328297662 -544.6803823017792 135 34 23
-1016.5459862057065 -1500.236612870081 -544.2089117023675 155 43 34
-1021.4942137355628 -1495.98096372501 -543.7228477211272 174 46 34
-1022.3839632904375 -1495.3944849503446 -543.7511847128144 174 45 31
-1023.3195343085832 -1494.8939016001073 -543.8561580312476 163 35 21
-1024.2173435873174 -1494.3213014991425 -543.8971785556978 163 33 19
-1129.7640127324123 -1575.1708024137852 -644.6600450005178 19 5 7
-1115.9137886137441 -1522.0048929827353 -603.8810703314989 72 13 10
-1116.7231135596649 -1521.126634549103 -603.6835841602515 70 10 6
-1138.3265504732244 -1505.7948610916592 -603.6646082435407 57 6 24
-1139.2206249791343 -1505.051596040666 -603.5934056292526 124 100 110
-1100.4589773236407 -1342.0271696146788 -480.25208041626144 139 148 179
-1101.099099036841 -1339.358962336688 -478.81794668868537 136 145 175
-1101.5153405914825 -1338.1656344450857 -478.23615069017484 139 147 182
-1102.870454921545 -1322.4120874386044 -468.6568516924738 141 154 188
-1103.263576838684 -1321.2148464109105 -468.06191764612385 139 152 186
-1103.958929288657 -1318.6998810066498 -466.752344587089 140 153 187
-1104.5966793925882 -1317.8482685621057 -466.4934168924429 140 153 187
-1105.0908863387958 -1316.798482733774 -466.0403282844131 142 155 189
-1105.5564981968328 -1315.710574891501 -465.549439061858 141 154 188
-1105.9099178510082 -1314.4693995297775 -464.90784628665705 141 154 188
-1106.461132258533 -1313.5028033949648 -464.5347726070683 141 154 188
-1106.836024453794 -1312.2949006571266 -463.9245734675737 140 153 187
-1107.2575388816495 -1311.1529854140763 -463.3784870226978 142 155 190
-1107.929072185978 -1310.3552684574124 -463.1699532991483 141 154 189
-1108.2876875502889 -1309.1302438842354 -462.5412016867339 143 156 190
-1108.7233607850908 -1308.0124403898399 -462.01722240565385 145 158 193
-1109.6034885731237 -1305.7937873144103 -460.98426964706397 145 157 192
-1110.0170457379663 -1304.65095968254 -460.4339426814533 143 159 192
-1110.6854849053489 -1303.855077939897 -460.2251781332863 143 158 192
-1111.0935685465352 -1302.7077373881154 -459.6694184129653 145 156 192
-1111.6612689546903 -1301.7775355367762 -459.3274725716246 145 159 194
-1112.1294859524714 -1300.714337588016 -458.8537785554793 144 158 193
-1112.7413832069992 -1299.8457358095925 -458.5719919938344 147 158 193
-1113.2128727331058 -1298.7895056772868 -458.104310822341 143 158 192
-1114.0219619901216 -1298.1867986726293 -458.0851434790829 147 157 192
-1114.513988173852 -1297.1600590321057 -457.64597765370894 143 157 192
-1115.0552448330677 -1296.200332717791 -457.27278508812987 146 159 192
-1115.557163478017 -1295.1893101456662 -456.84833381930144 146 159 195
-1116.24676933519 -1294.4290191231173 -456.6723236526879 144 157 192
-1116.8137951257822 -1293.5064531651174 -456.33501283278355 143 156 191
-1117.305391804239 -1292.484956930257 -455.89904525362516 144 160 193
-1117.8908700108154 -1291.5888569991534 -455.5873353874277 149 162 195
-1118.6872238686806 -1290.971790386813 -455.553028521347 148 161 194
-1119.2924787504137 -1290.1029076365944 -455.2680133935974 145 161 193
-1119.9458113889375 -1289.297959514407 -455.0464492734539 146 161 194
-1120.5600640610937 -1288.4422553926458 -454.7740946394892 146 162 194
-1121.4720465571545 -1287.9770869750578 -454.89118082659724 146 159 194
-1122.1222975485698 -1287.1690987701063 -454.6662347252531 147 160 195
-1122.8075427613771 -1286.4072806858085 -454.487235666749 148 163 195
-1123.6577362155776 -1285.8605832400717 -454.523189103177 147 162 197
-1124.3333434132958 -1285.0865356894392 -454.3318505096151 147 161 195
-1124.9830502206128 -1284.2792838622972 -454.1071316339815 144 160 193
-1125.696830889417 -1283.5555124234475 -453.96585703564455 146 162 197
-1126.4025125206817 -1282.8214812141828 -453.81422420950713 148 163 198
-1127.0811565182341 -1282.0528174627218 -453.6277646463802 153 168 203
-1127.6924485118607 -1281.1978066910387 -453.3545010131259 149 165 200
-1128.3821872900385 -1280.4443107222742 -453.1829517921529 149 165 200
-1128.9808657274725 -1279.5743207607939 -452.89420332526237 154 169 202
-1129.6165370702959 -1278.7524488441472 -452.6535799623178 153 169 202
-1130.4525942163004 -1278.1872521042324 -452.6710707689521 156 172 205
-1131.3127277272254 -1277.6523894987538 -452.71924674565736 159 174 208
-1132.037959419678 -1276.945263479004 -452.5940026951185 161 177 211
-1132.9858923250717 -1276.5213249047074 -452.7542755338806 160 175 209
-1133.8330323446805 -1275.9686183079193 -452.7849373779879 159 177 212
-1134.6728653625244 -1275.4062328644816 -452.8059804377271 159 174 208
-1135.7160472382293 -1275.1004671859696 -453.0864608383112 160 176 210
-1136.702127528462 -1274.7213234428925 -453.2932364314568 161 178 214
-1137.5069701597063 -1274.1128925008948 -453.2684149033875 160 180 213
-1138.4045893660723 -1273.6208486716932 -453.36151059166815 160 179 210
-1139.2305231469115 -1273.0382185802118 -453.3630695946909 160 179 211
-1140.0697366335094 -1272.4718997606255 -453.38128153022075 160 179 211
-1140.8342191237589 -1271.811794743497 -453.30448783747767 160 179 211
-1141.444711228131 -1270.9595381664094 -453.0326407371321 160 179 211
-1141.9728959762988 -1270.0054623922142 -452.65711140886566 162 181 213
-1142.986605113581 -1269.6559490637878 -452.8957458967897 161 180 212
-1144.0114788216165 -1269.3191097768836 -453.1477079730129 162 181 213
-1144.9180438974986 -1268.8345300861088 -453.2497400553851 164 183 213
-1145.8672195122501 -1268.401942122502 -453.404982171212 162 181 213
-1146.994372486502 -1268.1880785464737 -453.78348631707576 161 180 213
-1148.2361421604292 -1268.113693682355 -454.30487742674535 160 179 209
-1149.3962808245099 -1267.9367645878792 -454.7224270470011 159 178 208
-1150.5763328595572 -1267.7824517595582 -455.16375488788407 158 177 207
-1153.236659424061 -1267.835151962139 -456.4180805365348 157 175 205
-1155.7171180082892 -1267.6585079840368 -457.44140039155883 151 169 196
-1156.928474810898 -1267.5318608243956 -457.91500092066525 150 166 193
-1180.7257781744102 -1270.4492158525359 -470.7190760166239 182 198 227
-1181.6216279492473 -1269.9079151014125 -470.77946495094073 175 191 219
-1294.3086234214688 -1393.5401118247091 -602.5202963982038 99 110 127
-1294.9696675003981 -1392.4909033766344 -602.1441041490652 103 110 127
-1298.8834109078227 -1393.4049103412667 -604.5310484545021 101 112 121
-1300.192650830048 -1393.1044306727736 -604.9369834193069 104 110 123
-1301.139207404954 -1392.3825543051491 -604.9037022813893 104 111 122
-1309.4840845461908 -1392.9108010953028 -609.0732661141842 107 116 123
-1328.2745754459254 -1392.4625148780906 -617.401544633846 109 117 126
-1329.612340337143 -1392.151960423508 -617.8140393330166 112 119 128
-1330.7608632128904 -1391.6281448955342 -618.0016429317836 113 121 130
-1332.1743862461744 -1391.3989493103722 -618.5015673480532 112 119 129
-1334.8786646489307 -1390.7979058877827 -619.3527356957859 119 126 135
-1339.3982246137307 -1390.3947652854636 -621.1646590200523 119 126 135
-1347.7037829469136 -1390.5214712998174 -625.0561802527345 114 120 131
-1349.1014178930095 -1390.2497213249476 -625.5212622394381 112 118 133
-1350.4021866456874 -1389.8703145210975 -625.8722043342734 115 121 136
-1353.091052460871 -1389.2018476088472 -626.6726449395644 112 118 132
-1354.043057545684 -1388.439063702843 -626.6153741201533 116 122 135
-1355.3205174826862 -1388.0287732387746 -626.935627260857 115 121 138
-1356.0597815442222 -1387.0349412082387 -626.6311695574295 115 120 137
-1359.0531929586014 -1386.6818697010904 -627.77552179078 111 118 135
-1267.627985342806 -1276.942056463644 -514.7824360227135 135 142 163
-1268.6154647626731 -1274.813740035052 -513.8572171863359 139 145 165
-1272.8426293664256 -1269.7848465560437 -512.5397298730643 147 159 177
-1274.1021910758889 -1269.5292430173117 -512.951937635798 147 158 178
-1275.0282827553424 -1268.9234849492898 -512.9844596589196 149 160 177
-1276.2620730578099 -1268.6382754848728 -513.365676328395 146 157 175
-1277.3787835744306 -1268.2295863022232 -513.6132360775459 145 156 173
-1278.4679764481182 -1267.7911685425552 -513.8289243746829 142 153 171
-1279.38077561528 -1267.1687264858 -513.8445462472432 141 152 169
-1281.999244157539 -1266.7423788790275 -514.769476764912 139 150 167
-1283.2513479887539 -1266.46750113225 -515.1657832878934 137 148 166
-1284.2746125124702 -1265.9553044333582 -515.3034586653673 137 148 166
-1286.8904203937545 -1265.5128724220026 -516.216753746037 138 151 167
-1287.989798420735 -1265.0753205496985 -516.4376743100856 134 146 162
-1289.1358744092124 -1264.6844882519808 -516.7102658086233 147 161 178
-1291.9911926082136 -1264.473027824314 -517.8829763713563 145 154 174
-1293.3194759468474 -1264.2628800901753 -518.3561382471783 149 159 178
-1294.3477307227326 -1263.746278383776 -518.4932501223964 135 146 164
-1297.4792056157055 -1263.7982125798358 -519.9631793941016 134 145 163
-1298.8321979642726 -1263.6052958294263 -520.4588319716074 135 146 163
-1300.0898640050664 -1263.3143715734 -520.8472991454701 135 146 163
-1313.1608457035795 -1263.9207452862852 -527.2351548590884 141 149 167
-1316.157260453866 -1263.7748263871235 -528.5150214818536 150 164 179
-1317.3391792395596 -1263.3857647147695 -528.8051993735899 152 162 178
-1318.629493347371 -1263.1023753085676 -529.2135201168394 151 161 176
-1321.978293070786 -1263.2856900582206 -530.8682012866102 144 153 171
-1385.0410514531227 -1315.3095306701662 -593.4797630193982 125 130 143
-1389.5305381386452 -1314.715708291241 -595.1544212010319 121 127 138
-1390.4755660472883 -1313.981228532187 -595.1122778826443 122 127 139
-1488.3416887925196 -1326.672829876939 -648.2182747775596 142 144 157
-1543.4398925935566 -1329.3133860838466 -675.1997682810859 138 140 151
-1544.513523201268 -1328.5487184931949 -675.1970631951879 140 143 151
-1545.7675372429812 -1327.935623761657 -675.3752413102332 135 137 146
-1108.4570439773588 -2441.999769602072 -1198.470350592625 21 21 21
-1115.6003145235052 -2442.698481106092 -1202.2052502244958 22 22 21
-1117.0057349154674 -2441.7037778750955 -1202.2059853722549 22 22 19
-1118.3582416345544 -2440.548270641799 -1202.0781454667801 21 21 19
-1137.0046005036147 -2444.0646285141565 -1212.9249007471465 27 25 26
-1138.279889927414 -2442.6426023108247 -1212.588774683287 27 25 26
-1139.7349504279746 -2441.7483923783893 -1212.6774756543691 26 24 25
-1142.8409138724105 -2440.5263118343187 -1213.3120665631845 24 22 23
-1144.1309352404733 -2439.1462938658324 -1213.0099468370709 26 24 25
-1145.371944729121 -2437.6250561629167 -1212.5937430415836 28 26 27
-1151.1245979346622 -2433.8207903396583 -1212.770032103579 27 25 26
-1155.3997659242618 -2435.908004770895 -1216.087529759063 27 25 26
-1158.175245573224 -2433.6872878352833 -1215.9227730805887 27 25 26
-1054.2135345260563 -2042.8889241438378 -914.7670199167521 65 67 69
-1055.7657590961676 -2039.1327354986347 -913.0446645376585 68 69 71
-1060.9654155604164 -2029.398066396106 -909.1216360805763 60 61 66
-1062.8687891358607 -2026.624063601338 -908.1974561057857 59 59 68
-1064.0164059218723 -2025.7527895433263 -908.1597786827272 72 71 80
-1065.2138944293138 -2025.0112295992963 -908.2291201660375 86 88 92
-1066.4163261384124 -2024.2814261082267 -908.3083555637602 85 87 96
-1067.6318837962353 -2023.5845577535374 -908.414976486481 84 85 96
-1068.7041781295252 -2022.5149451264738 -908.2140913876322 74 75 84
-1069.745369190402 -2021.3653218693607 -907.9470377975783 66 68 79
-1070.8480215570517 -2020.3750983522127 -907.811575810734 67 69 79
-1073.3945029078027 -2019.2710094202057 -908.2656272586194 70 73 85
-1074.6727019696727 -2018.7286610281908 -908.5012179310299 67 67 79
-1075.7090009884057 -2017.5659567991083 -908.2234351175618 66 66 78
-1077.0160694475178 -2017.0945884383673 -908.5183125561578 63 63 75
-1085.780669061597 -2016.535597541123 -912.1826152856936 61 61 73
-1089.9515939442422 -2015.6727690164817 -913.5394228519078 55 55 67
-1094.3109530848155 -2015.2482305794397 -915.2669891509524 67 67 79
-1095.6024224234936 -2014.6990297820348 -915.5042335575283 68 68 80
-1096.6648741675613 -2013.5825812330318 -915.268458199226 63 63 76
-1097.972682430663 -2013.0708996905819 -915.5375366054934 58 58 71
-1099.356923953864 -2012.7448060764955 -915.9620655597566 61 61 74
-1100.53691884745 -2011.915060029657 -915.966190337206 71 71 83
-1101.796087529964 -2011.2782059160513 -916.1317606439977 74 74 86
-1103.0153847389493 -2010.5424703854974 -916.2148983036734 69 70 82
-1104.2659628286865 -2009.8817271405637 -916.3610321771648 62 65 77
-1105.6814288777432 -2009.6199289392111 -916.8415956397419 68 68 80
-1107.0548640167617 -2009.252967604049 -917.2346612950116 69 70 81
-1108.3160383796244 -2008.611784312699 -917.3983460551015 72 74 89
-1110.9358261882694 -2007.559151956054 -917.9194412031441 68 70 82
-1112.280890524565 -2007.1141178003868 -918.248850224033 72 73 87
-1113.5949422841018 -2006.5923192899158 -918.514237295612 69 70 87
-1114.7293501367162 -2005.6390559485621 -918.4173296879223 77 80 94
-1116.0510573993975 -2005.1322488628794 -918.6959543401817 82 82 100
-1117.4076382975427 -2004.7062181731708 -919.0429762345243 78 80 99
-1118.6575921906378 -2004.0245326833779 -919.1752444544125 77 76 97
-1121.3991571799438 -2003.2279988081063 -919.9183414560546 78 80 97
-1122.8398397459168 -2002.990510102407 -920.4262524207104 80 81 99
-1125.611465517607 -2002.2477846680986 -921.2180495529201 81 85 102
-1126.9368000848153 -2001.7306112669476 -921.4916192283652 85 88 105
-1128.2329915216483 -2001.1432112086422 -921.7062648605497 87 90 107
-1129.5085715729192 -2000.505943364722 -921.8791068382106 87 90 108
-1132.22704919534 -1999.6149027555334 -922.5503189019789 88 91 109
-1133.3315756378504 -1998.5759445251747 -922.3841185143208 88 91 109
-1135.7500127763024 -1996.9812813453896 -922.46125557498 81 84 100
-1136.920931963963 -1996.0945551722684 -922.4242649589646 79 83 99
-1138.284141319506 -1995.6486004416051 -922.7614135115055 81 83 102
-1139.4874496575726 -1994.8340971565217 -922.7861326179793 80 82 98
-1140.7319700130106 -1994.1129421384508 -922.8903125876236 73 75 90
-1142.1712419722421 -1993.8344797481045 -923.3710082815369 81 83 99
-1143.481925907614 -1993.2603857672384 -923.6009398657318 82 84 100
-1144.7034186406172 -1992.482028570772 -923.6574504866726 88 91 107
-1147.9931543220946 -1992.8353540331937 -925.3979601405545 84 83 99
-1149.0443944091658 -1991.6661136566686 -925.1228037393294 88 87 103
-1150.0732481267137 -1990.4472929533208 -924.8052145837903 84 82 99
-1151.0493323164849 -1989.1110392257733 -924.387238187405 83 81 98
-1013.9502601555773 -1600.0164737144287 -609.1118088109392 83 7 0
-992.0421006300771 -1534.2822499051003 -556.4246310634949 123 28 12
-992.8176082092019 -1533.4527405570348 -556.2430743043424 126 30 16
-994.4795507109485 -1529.6055864859477 -554.5121453582478 134 47 24
-995.035559432272 -1528.3320730618834 -553.9418528196202 133 52 31
-995.5011100467697 -1526.8763962406874 -553.2118867027916 130 51 26
-996.0948527097875 -1525.6847165623449 -552.7119911084692 126 51 26
-996.7255030556607 -1524.569970805751 -552.2789358191199 126 53 28
-997.4917330141649 -1523.731635542002 -552.0873939183066 127 60 31
-1001.6535082254894 -1520.210059053206 -551.7160751348367 114 83 34
-1010.1720354836838 -1504.2354059254963 -545.2718636533043 124 42 29
-1010.767997004 -1503.083090919355 -544.7985113891611 128 40 29
-1012.6144669292503 -1502.0502475178532 -544.9771495049579 142 43 35
-1014.8774070183167 -1499.5202301842014 -544.3763657235265 143 35 21
-1017.2941150218154 -1497.2885650944477 -544.0396785982955 181 67 60
-1022.55761929377 -1493.6393565757849 -544.0917748699583 164 44 35
-1024.3076992833264 -1492.4109072888837 -544.0992980654387 153 26 18
-1124.6211620488489 -1573.5336726194191 -642.786371862644 17 8 7
-1129.0490346164302 -1574.0744461779818 -645.1713203737381 20 7 7
-1129.9437227376234 -1573.2539802833053 -645.0503828876958 20 8 8
-1116.6951979205314 -1521.1833048956305 -605.2011271782928 66 13 9
-1117.5959040035323 -1518.235197570138 -603.7033994403223 72 16 9
-1137.2267348323735 -1506.2840261886563 -604.9733633642336 48 1 11
-1138.060397507721 -1505.4441215323845 -604.8117847221354 90 48 62
-1099.1564142110124 -1347.3715556463796 -484.4443054284373 132 142 173
-1099.665418771182 -1342.692300056206 -481.6441465477239 137 146 177
-1100.368338192165 -1340.1095359335618 -480.29243622484654 138 147 178
-1100.7309795124584 -1338.8375809438196 -479.63431471305086 140 149 179
-1101.219042231353 -1337.7466076065582 -479.1511638469761 141 149 183
-1102.9345380855975 -1320.7480866817832 -468.9175398048265 142 155 189
-1103.366898658439 -1319.6073883996282 -468.37655603171623 140 153 187
-1103.6993200674538 -1318.3294855396648 -467.7006939033508 138 151 185
-1104.2173567853724 -1317.3114597034364 -467.27861299485875 138 151 185
-1104.7501665375917 -1316.3151919530815 -466.877427177979 140 153 187
-1105.1808406060889 -1315.1789249126618 -466.3385417696372 140 153 187
-1105.687471416463 -1314.1492182177212 -465.9036467783695 140 153 185
-1106.1130718885886 -1313.009241854707 -465.3600252785089 139 152 182
-1106.5590895367363 -1311.8990908325488 -464.8451227572073 141 154 188
-1106.9791302549456 -1310.754938737557 -464.29623939060076 141 154 185
-1107.6070159612264 -1309.8972259028137 -464.0285731618374 142 155 186
-1108.3830075688938 -1307.5292434702794 -462.8496983281804 144 157 188
-1108.738512837771 -1306.3038874529793 -462.2185128828132 147 160 191
-1109.3277863031185 -1305.3983795102895 -461.9021167208427 144 157 188
-1109.8353185657102 -1304.382845587762 -461.4768254619126 143 159 191
-1110.41467852966 -1303.4658746372143 -461.14844213222017 143 158 188
-1110.9051631543448 -1302.4296949208792 -460.7019319588482 143 159 188
-1111.4471972197039 -1301.4644330588296 -460.32508820742265 143 159 191
-1112.0253490609687 -1300.5489123530792 -459.99709015927743 143 158 190
-1112.4819208894075 -1299.4708961625133 -459.50787269170775 145 158 190
-1113.0499653106917 -1298.5439556892509 -459.1678264200388 145 158 190
-1113.6676161373648 -1297.6844028577254 -458.8942648976603 142 158 189
-1114.2577371850953 -1296.788765417739 -458.58465814210757 143 158 191
-1114.983679681907 -1296.0751641473025 -458.45548390867776 142 157 190
-1115.4873909836974 -1295.0658176631582 -458.0324490854104 144 159 192
-1115.9943451708596 -1294.062052383138 -457.6145229850494 144 159 192
-1116.5640849654726 -1293.1428267532015 -457.28025790149474 146 161 194
-1117.119429424214 -1292.2054756485318 -456.92762662571744 145 160 193
-1117.7387416379465 -1291.353667660775 -456.659850129203 144 159 192
-1118.4528009718506 -1290.6275274562795 -456.51708617291894 146 162 195
-1119.2338896004533 -1289.989857060115 -456.46248122597837 146 161 194
-1119.787685685536 -1289.0533609958559 -456.10969298066374 146 161 194
-1120.5244349337647 -1288.3578545257355 -455.9972163344585 147 162 195
-1121.2474226405843 -1287.6444307319111 -455.8667996468051 144 159 192
-1122.0481031230725 -1287.0327085132694 -455.8380205589505 146 161 194
